0.05365318 0.05395837 0.05398889 0.05395837 0.05371422 0.05307331 0.05191357 0.05020448 0.04800708 0.04751877 0.04782397 0.04849539 0.0489837 0.04971617 0.0510285 0.0532259 0.05563694 0.05890252 0.06192394 0.06470121 0.06772264 0.07104926 0.0742538 0.07770249 0.08060184 0.08249405 0.08466093 0.0863395 0.08829274 0.09085637 0.09311482 0.09552585 0.09836416 0.1001953 0.1014161 0.1016908 0.1015687 0.1017213 0.1019349 0.1025148 0.1031862 0.1036745 0.1036135 0.1025758 0.1018129 0.1010804 0.09982909 0.09873039 0.09738754 0.09409144 0.09122261 0.08789599 0.08475249 0.08185314 0.07916743 0.07642068 0.07327718 0.07022523 0.06729537 0.06476225 0.06164927 0.05847525 0.05499603 0.05124214 0.04782397 0.04434475 0.0406519 0.03674541 0.03293048 0.03003113 0.02673503 0.02331685 0.02414088 0.03445645 0.04184216 0.04690838 0.050235 0.05224928 0.0533785 0.05386681 0.05398889 0.05398889 0.05377525 0.05298175 0.05112007 0.04764085 0.04187267 0.0379967 0.041598 0.04437527 0.04785448 0.05169993 0.05609473 0.06048953 0.06607459 0.07217848 0.07822133 0.08402002 0.08856742 0.09222975 0.09601416 0.09970701 0.1033999 0.1073064 0.111396 0.1159434 0.1199719 0.1243972 0.1283648 0.1315998 0.1359336 0.1384972 0.1407557 0.1421901 0.1425868 0.1438381 0.1456388 0.1474089 0.1494232 0.1508576 0.1508881 0.1498199 0.1475005 0.1447232 0.1423122 0.1402673 0.1384057 0.1368492 0.1345297 0.132607 0.1305317 0.1285174 0.1254349 0.1226576 0.1189343 0.1155161 0.1124031 0.1093206 0.1062382 0.1030641 0.1000427 0.09775377 0.09598364 0.09412196 0.09335897 0.09287066 0.09320638 0.09348105 0.09384728 0.09421352 0.09399988 0.09335897 0.09305377 0.09305377 0.09354208 0.09552585 0.09757065 0.09979858 0.102118 0.1034914 0.1044375 0.1053836 0.1063908 0.1081609 0.1096869 0.1111518 0.1125557 0.1135018 0.1141732 0.1166148 0.1196057 0.1221998 0.124794 0.1271745 0.1296771 0.1320881 0.1352622 0.1378258 0.1400842 0.1417628 0.1421901 0.1421901 0.1410914 0.1398706 0.1378868 0.1356284 0.1331563 0.1312641 0.1285479 0.1258316 0.1241836 0.1214979 0.1192089 0.116981 0.1148752 0.1126778 0.1102667 0.1077336 0.1047732 0.1023012 0.1002869 0.09839468 0.09628884 0.09332845 0.09134468 0.08957456 0.08865897 0.08783495 0.08701093 0.08597326 0.08368431 0.08200574 0.07925899 0.07681743 0.07489471 0.07312458 0.07175121 0.07025576 0.06900445 0.06714277 0.06567784 0.06451809 0.06283953 0.06052005 0.05856681 0.05704083 0.05618629 0.05600318 0.0558811 0.0555759 0.05426357 0.05392785 0.05398889 0.05398889 0.05377525 0.05319539 0.0521272 0.05050968 0.04840383 0.04596228 0.04330709 0.04229994 0.04315449 0.04419215 0.04452787 0.04510773 0.04541293 0.04519929 0.0456876 0.04513825 0.04471098 0.04425319 0.04507721 0.04721358 0.04910578 0.05069279 0.05194409 0.05285967 0.05343954 0.05377525 0.05392785 0.05398889 0.05398889 0.05398889 0.05395837 0.05386681 0.05377525 0.05365318 0.05356162 0.05350058 0.05350058 0.05380578 0.05389733 0.05411097 0.05444668 0.05505707 0.05530123 0.05551486 0.05606421 0.05600318 0.05545382 0.05585058 0.05569798
0.05383629 0.05398889 0.05398889 0.05386681 0.05334798 0.0522798 0.05054019 0.04812916 0.04510773 0.0447415 0.04519929 0.04538241 0.04629799 0.04727461 0.04837331 0.05054019 0.05347006 0.05649149 0.05990966 0.06296161 0.06628823 0.0694012 0.07227004 0.07510834 0.07745834 0.07996093 0.08200574 0.08447781 0.08676677 0.0891778 0.09189404 0.09506806 0.0971739 0.09873039 0.09903558 0.09961545 0.09946286 0.09973753 0.1000732 0.1003784 0.1007752 0.1008973 0.1008362 0.09979858 0.09891351 0.09812 0.09647195 0.09534273 0.0935726 0.09107001 0.08844534 0.08521028 0.08200574 0.07874016 0.07635964 0.07419276 0.07178172 0.06930965 0.06659342 0.06351095 0.0599707 0.05670512 0.05328694 0.05014344 0.04642007 0.04287981 0.03933956 0.0359519 0.03222853 0.02877983 0.02523958 0.02240127 0.02545321 0.03540255 0.04251358 0.04736617 0.05054019 0.0524324 0.05347006 0.05389733 0.05398889 0.05398889 0.05374473 0.05285967 0.05087591 0.04724409 0.04126228 0.03866813 0.0412928 0.04504669 0.04877007 0.05267655 0.05658304 0.06088629 0.06598303 0.072209 0.07828236 0.08386742 0.08847586 0.09250443 0.09674662 0.1009278 0.1050479 0.1089544 0.1131661 0.1172557 0.1214979 0.1258316 0.1297992 0.1329427 0.1359031 0.1393213 0.1407251 0.142007 0.1431972 0.1449368 0.1466154 0.1486907 0.1503693 0.1513459 0.1512544 0.1501556 0.1485686 0.1454862 0.1427699 0.1409083 0.1389245 0.1375206 0.1356284 0.1331563 0.1306232 0.1281817 0.1261674 0.1233596 0.1199109 0.1167369 0.1134102 0.1097784 0.1066044 0.103583 0.1006531 0.09830312 0.09570897 0.09399988 0.09308429 0.09296222 0.09271806 0.09268754 0.09284014 0.09284014 0.09320638 0.09287066 0.09226027 0.0919856 0.09256546 0.09457975 0.09650247 0.09854727 0.1002869 0.1015077 0.1023012 0.1033693 0.1048648 0.1067265 0.1084356 0.1099921 0.1105109 0.1113349 0.1127693 0.1149362 0.117744 0.1207349 0.1227492 0.1255265 0.1271745 0.129494 0.1323628 0.1349265 0.1373375 0.1390771 0.1398401 0.1393518 0.1384057 0.1369713 0.1351706 0.1326375 0.1309284 0.1293414 0.1269609 0.1246414 0.1226271 0.120155 0.117744 0.1155466 0.1132271 0.1108161 0.1088323 0.1062992 0.1035219 0.1007752 0.09909663 0.09757065 0.09552585 0.09311482 0.09103949 0.08942196 0.08798755 0.08746871 0.0869804 0.08624794 0.08502716 0.08292132 0.08057132 0.07852652 0.07657328 0.07501678 0.073796 0.07251419 0.07129341 0.06967589 0.06845511 0.06735641 0.06570835 0.06406031 0.06174083 0.06039798 0.06000122 0.05951291 0.05868889 0.05749863 0.05636941 0.05435512 0.05395837 0.05398889 0.05395837 0.05374473 0.05319539 0.05218824 0.05078435 0.0489837 0.04696942 0.0448941 0.04486358 0.04544345 0.04574864 0.04547397 0.04553501 0.04590124 0.04541293 0.0445889 0.04394799 0.0445889 0.04635903 0.0480376 0.04959409 0.05090643 0.05197461 0.05279863 0.05334798 0.0536837 0.05389733 0.05395837 0.05398889 0.05398889 0.05398889 0.05398889 0.05395837 0.05389733 0.05386681 0.05386681 0.05389733 0.05404993 0.05420253 0.05441616 0.05475188 0.05505707 0.05514863 0.05545382 0.0557285 0.05533174 0.0546298 0.05417201 0.0543246
0.05395837 0.05398889 0.05395837 0.05362266 0.05276811 0.05115058 0.04873955 0.04544345 0.04156748 0.04156748 0.04208631 0.04303241 0.04382592 0.04452787 0.04638955 0.04831228 0.05075383 0.05386681 0.05722395 0.06067265 0.06424342 0.06732589 0.07019471 0.07275835 0.07538302 0.07767197 0.08057132 0.08313496 0.08579015 0.08826222 0.09061222 0.09375572 0.09598364 0.09662455 0.09696026 0.09708234 0.09723493 0.09790637 0.09802844 0.09799793 0.09815052 0.09821156 0.09787585 0.09696026 0.09622779 0.09479338 0.09345053 0.09195507 0.09061222 0.08890313 0.08679729 0.08331807 0.07977782 0.07623756 0.0742538 0.0720564 0.07034731 0.06836355 0.06558628 0.0621681 0.05832265 0.05466032 0.05099799 0.04779344 0.0447415 0.04107917 0.03784411 0.03418177 0.03051944 0.02719282 0.02383568 0.02078374 0.02725386 0.03674541 0.04345968 0.04800708 0.05093694 0.05267655 0.05359214 0.05392785 0.05398889 0.05395837 0.05365318 0.05264603 0.05047916 0.04657267 0.04028566 0.03793567 0.0412928 0.04443631 0.04867851 0.052585 0.05661356 0.0610694 0.0664103 0.07233107 0.07837392 0.08389794 0.08862846 0.09345053 0.09839468 0.1029726 0.1071232 0.1106635 0.1141122 0.1182323 0.1225966 0.1263505 0.1307453 0.1338277 0.1362693 0.1387109 0.1404505 0.1418544 0.1440518 0.1463407 0.1485076 0.1501556 0.1512544 0.1515901 0.1510712 0.1502472 0.1485686 0.1462797 0.143655 0.1415492 0.1398706 0.1382531 0.1361167 0.133492 0.1314167 0.1284563 0.1260453 0.1236343 0.120918 0.1176219 0.1139901 0.1102057 0.1069706 0.1043154 0.1015687 0.09885247 0.09580053 0.09393884 0.09320638 0.09222975 0.09174144 0.09122261 0.09122261 0.09180248 0.09219923 0.09259598 0.09207715 0.09110053 0.09143624 0.09271806 0.09439663 0.09619728 0.09769273 0.09863883 0.09979858 0.1012025 0.1033083 0.1053836 0.1072758 0.1084356 0.1093512 0.1102973 0.1112434 0.1132576 0.1154856 0.117683 0.1200635 0.1223524 0.1245804 0.1262284 0.1285784 0.1311115 0.1335226 0.1354453 0.1361472 0.1352927 0.1341024 0.1329122 0.1314777 0.129555 0.1283343 0.127205 0.1253739 0.1235427 0.1215589 0.1183849 0.1159128 0.1127693 0.1105414 0.109046 0.1071538 0.1049869 0.1022706 0.09970701 0.09781481 0.09625831 0.09424403 0.09207715 0.08945248 0.08783495 0.08725508 0.08682781 0.08609534 0.08554599 0.08469145 0.08356223 0.08185314 0.07993042 0.07797717 0.07687847 0.07587133 0.07532198 0.0742538 0.07306354 0.07208692 0.07092718 0.06937069 0.06735641 0.06540316 0.06360251 0.06296161 0.06268694 0.06167979 0.05975707 0.05743759 0.05578954 0.05420253 0.05395837 0.05398889 0.05395837 0.05371422 0.05316487 0.05224928 0.0510285 0.04950253 0.047885 0.04718306 0.04742721 0.04712202 0.04672527 0.04632851 0.04620643 0.04590124 0.04498566 0.04471098 0.0459928 0.04733565 0.04867851 0.04992981 0.0510285 0.05194409 0.05267655 0.05319539 0.05356162 0.05380578 0.05392785 0.05398889 0.05398889 0.05398889 0.05398889 0.05398889 0.05398889 0.05398889 0.05398889 0.05398889 0.05411097 0.05423304 0.05453824 0.05499603 0.05499603 0.05520967 0.05502655 0.05459928 0.05411097 0.05252396 0.05182201 0.04968565
0.05398889 0.05398889 0.05383629 0.05325642 0.05191357 0.04965513 0.04638955 0.04211683 0.03772203 0.03821034 0.03854606 0.03943112 0.04028566 0.04135384 0.04291033 0.04498566 0.0480376 0.05087591 0.05426357 0.05771226 0.0613746 0.06485381 0.06799731 0.07065251 0.07342978 0.07605445 0.0786486 0.08215833 0.08456937 0.08679729 0.08960508 0.09171092 0.09360313 0.09451871 0.09476286 0.09476286 0.09491546 0.09558689 0.09583104 0.09555637 0.09555637 0.09567845 0.09525117 0.09439663 0.09323689 0.09192456 0.09082586 0.08939144 0.08829274 0.08676677 0.08472197 0.08170054 0.07806873 0.07462003 0.07202588 0.07046939 0.06879082 0.06665446 0.06363303 0.06006226 0.05621681 0.05215772 0.04840383 0.04498566 0.04178111 0.03821034 0.03509736 0.03137399 0.02813892 0.02520906 0.02237075 0.01886101 0.02957334 0.03842398 0.04464994 0.04883111 0.05145578 0.05295123 0.05371422 0.05395837 0.05398889 0.05392785 0.05350058 0.05231032 0.04986877 0.04562657 0.03891229 0.03787462 0.04114021 0.04480254 0.04834279 0.05295123 0.05734603 0.06167979 0.06683758 0.07281938 0.07901483 0.08472197 0.08994079 0.09491546 0.1001343 0.1050174 0.109107 0.1123115 0.1150583 0.1191174 0.1231154 0.1272661 0.131142 0.1342855 0.1366966 0.1386803 0.1404505 0.1428005 0.1453946 0.1480498 0.1500641 0.1515901 0.152292 0.1519258 0.1510712 0.1500336 0.148416 0.1461576 0.1442044 0.1422816 0.1402063 0.1385277 0.1370323 0.1340109 0.1315083 0.1288531 0.1258927 0.1232985 0.1206433 0.1176524 0.1137154 0.1102362 0.1070927 0.1045596 0.101996 0.09909663 0.09610572 0.09399988 0.09308429 0.09232131 0.09143624 0.09036806 0.09006287 0.09079534 0.09122261 0.09113105 0.0907343 0.08966611 0.08951352 0.09033754 0.09164988 0.09317585 0.09464078 0.09564793 0.09689923 0.09866935 0.1011109 0.1035525 0.1053836 0.1066044 0.107581 0.1088018 0.1099005 0.111396 0.1133187 0.1151804 0.1173167 0.1193005 0.1209791 0.1226576 0.1249771 0.1272355 0.1292193 0.1309894 0.1315998 0.1311115 0.1297992 0.1286089 0.1272966 0.1260758 0.1254349 0.124794 0.1228407 0.1213453 0.1190563 0.1158518 0.1127693 0.10987 0.1078557 0.1062382 0.1049869 0.1031862 0.1006836 0.09833364 0.09641092 0.0948239 0.09305377 0.09107001 0.08893365 0.08673625 0.08600378 0.08594275 0.08597326 0.0852408 0.08496612 0.08402002 0.08240249 0.08078496 0.07941158 0.07837392 0.07806873 0.07779405 0.07718366 0.07602393 0.07504731 0.07394861 0.072209 0.07031679 0.06827199 0.06695965 0.0665629 0.06567784 0.0642129 0.06119148 0.05890252 0.05728499 0.05566746 0.05380578 0.05398889 0.05398889 0.05392785 0.0536837 0.05313434 0.05231032 0.05121162 0.04996032 0.04892267 0.04925838 0.0481902 0.04730513 0.04672527 0.04654215 0.04614539 0.04541293 0.04611488 0.04703046 0.0480376 0.04910578 0.05011292 0.0510285 0.05182201 0.05249344 0.05298175 0.0533785 0.05362266 0.05380578 0.05389733 0.05395837 0.05398889 0.05398889 0.05398889 0.05398889 0.05398889 0.05398889 0.05398889 0.05411097 0.05408045 0.05466032 0.0547824 0.0544772 0.05459928 0.05377525 0.05267655 0.05084539 0.04855643 0.04699994 0.04477202
0.05398889 0.05395837 0.05365318 0.05267655 0.05078435 0.04779344 0.04355124 0.0381493 0.0347006 0.03506684 0.03561619 0.03589086 0.03671489 0.03839346 0.04016358 0.04236098 0.0447415 0.04779344 0.05112007 0.05438564 0.05829213 0.0623207 0.06589147 0.06879082 0.07175121 0.07458951 0.07742782 0.0806934 0.08395898 0.08569859 0.08817066 0.09015442 0.09113105 0.09174144 0.09226027 0.09274858 0.09265702 0.09329793 0.09354208 0.09326741 0.09317585 0.09320638 0.09274858 0.091833 0.0907343 0.08942196 0.08814014 0.08701093 0.0861869 0.08487456 0.08249405 0.07938106 0.07602393 0.07251419 0.07040835 0.0687603 0.06695965 0.06457914 0.06140511 0.0576207 0.05359214 0.0492889 0.04519929 0.04165903 0.03827138 0.03488372 0.03167918 0.02859672 0.02530062 0.02227919 0.01968504 0.02111945 0.03232009 0.04043826 0.04605383 0.04974669 0.05200513 0.05325642 0.05383629 0.05398889 0.05398889 0.05386681 0.05325642 0.05182201 0.04901422 0.04428371 0.03702008 0.03741683 0.0406519 0.04455838 0.04883111 0.05310383 0.05795642 0.06268694 0.06830251 0.07400964 0.08008301 0.08588171 0.09107001 0.09634987 0.1017823 0.1068791 0.1108161 0.1138375 0.1166148 0.1195446 0.1233596 0.1272966 0.1312946 0.1337972 0.1364219 0.1390771 0.1412745 0.143655 0.1464933 0.149179 0.1516816 0.1530855 0.1532686 0.1523836 0.1511323 0.1500946 0.1485686 0.146829 0.1449368 0.1430751 0.1413966 0.1392907 0.1371849 0.1338583 0.13102 0.1285479 0.1260148 0.1235732 0.1205213 0.1170115 0.1136544 0.1100531 0.1070622 0.104468 0.1018129 0.09876091 0.09586156 0.09393884 0.09238235 0.09143624 0.09030703 0.08936092 0.08939144 0.08945248 0.09015442 0.08969664 0.08902521 0.08814014 0.08740768 0.08789599 0.08914728 0.09021547 0.09143624 0.09250443 0.0938778 0.09564793 0.09805896 0.1007752 0.1029726 0.1047732 0.1056583 0.1073369 0.1084051 0.1095038 0.1109382 0.1123726 0.113868 0.1159128 0.1175304 0.1191479 0.1210096 0.1229934 0.124733 0.1262589 0.1268083 0.1262589 0.1252823 0.1241531 0.1233901 0.122505 0.1221693 0.1214063 0.1199414 0.1181408 0.1156992 0.1128304 0.1095648 0.1065739 0.1049869 0.1038271 0.10282 0.1012635 0.09900507 0.09680767 0.0951291 0.0937252 0.091833 0.08984923 0.08807911 0.08655313 0.08606482 0.08560703 0.08542392 0.0850882 0.08459989 0.08420314 0.08292132 0.08127327 0.08029665 0.0797473 0.0797473 0.07999145 0.0795947 0.0788012 0.07779405 0.07657328 0.07480315 0.07284991 0.07089666 0.06937069 0.06915705 0.06808887 0.06625771 0.063572 0.06143563 0.05920772 0.05740707 0.05517915 0.05389733 0.05398889 0.05398889 0.05389733 0.05359214 0.05307331 0.05231032 0.0513337 0.05087591 0.05035708 0.04947201 0.04791552 0.04730513 0.04675578 0.04651163 0.04672527 0.04718306 0.04779344 0.04855643 0.04934993 0.05017396 0.05093694 0.05160838 0.05221877 0.05270708 0.05307331 0.0533785 0.05359214 0.05371422 0.05380578 0.05386681 0.05389733 0.05392785 0.05392785 0.05392785 0.05389733 0.05386681 0.05389733 0.05398889 0.05420253 0.05417201 0.05380578 0.05276811 0.05157785 0.04950253 0.04687786 0.0425441 0.04010255 0.04391748
0.05398889 0.05389733 0.05331746 0.05191357 0.04938046 0.04550449 0.0401941 0.03351035 0.03125191 0.03174022 0.03232009 0.03256425 0.03384606 0.03561619 0.03686748 0.03949216 0.04211683 0.04483306 0.04806812 0.05145578 0.05551486 0.0599707 0.06396875 0.06732589 0.07059146 0.07373497 0.07681743 0.07983886 0.08255509 0.08475249 0.08658365 0.08810963 0.08899469 0.08957456 0.0904291 0.09079534 0.09116157 0.0913752 0.09128365 0.09107001 0.0905817 0.09033754 0.08987975 0.08884209 0.08771287 0.08667521 0.08588171 0.08514924 0.08459989 0.08279924 0.08023561 0.07718366 0.07394861 0.07107978 0.06872978 0.06699017 0.06506745 0.06241225 0.05878044 0.05499603 0.05081487 0.04605383 0.04147592 0.03784411 0.03418177 0.03119087 0.02838308 0.02499542 0.02203504 0.01941036 0.01681621 0.02517854 0.03534151 0.04260514 0.04754929 0.05072331 0.052585 0.05356162 0.05392785 0.05398889 0.05398889 0.05371422 0.05289019 0.05108954 0.04782397 0.04248306 0.03448697 0.03656229 0.04059086 0.04425319 0.04825123 0.0532259 0.05804798 0.06348044 0.06897394 0.07462003 0.08066288 0.08627846 0.09164988 0.09726546 0.1029116 0.1081304 0.1121284 0.1149973 0.1177135 0.1208265 0.1243362 0.1277239 0.1309589 0.133492 0.1360862 0.1392907 0.1417323 0.1446011 0.1470427 0.1500336 0.152353 0.1539401 0.1540927 0.1532076 0.1520479 0.1509797 0.1498199 0.1481719 0.1464018 0.1438992 0.1415797 0.1390771 0.1367881 0.1334615 0.1306232 0.1277544 0.1251602 0.1229934 0.1200024 0.116981 0.1134408 0.1101141 0.1070012 0.1040408 0.101233 0.09821156 0.09564793 0.09338949 0.09155832 0.09030703 0.08884209 0.08786547 0.08792651 0.08829274 0.08875053 0.08789599 0.08731612 0.08643106 0.08594275 0.08612587 0.08670573 0.0872856 0.08817066 0.08939144 0.09091742 0.09280962 0.0951291 0.09726546 0.1000732 0.101996 0.1035525 0.1050784 0.105933 0.1070927 0.1077947 0.1091986 0.110755 0.1126778 0.1144174 0.1155466 0.1171641 0.1187511 0.1201245 0.1211622 0.1213453 0.120796 0.1199109 0.1192395 0.118568 0.1186291 0.1188427 0.1179271 0.116981 0.1152109 0.1127083 0.1097174 0.1066654 0.1044986 0.1027895 0.101996 0.1012025 0.09964597 0.09744857 0.09537325 0.09366416 0.09232131 0.09064274 0.08908625 0.08774339 0.08637002 0.08591223 0.08560703 0.08551547 0.08487456 0.08441678 0.08426417 0.08301288 0.08206677 0.08124276 0.08124276 0.08151743 0.08188366 0.08163951 0.08075444 0.07980834 0.07858756 0.07703107 0.07529146 0.07367393 0.07242263 0.0720564 0.07043887 0.06818043 0.06595251 0.06293109 0.06082524 0.0591772 0.05710188 0.05539279 0.05438564 0.0543246 0.05438564 0.05417201 0.05350058 0.05319539 0.05325642 0.05289019 0.05221877 0.0503876 0.04895318 0.04825123 0.04785448 0.04767137 0.04770189 0.04794604 0.04834279 0.04886162 0.04944149 0.0500824 0.05072331 0.05130318 0.05182201 0.0522798 0.05267655 0.05298175 0.05319539 0.0533785 0.05350058 0.05359214 0.05362266 0.05365318 0.05362266 0.05359214 0.05347006 0.05331746 0.05316487 0.05328694 0.05273759 0.05237136 0.05151682 0.04974669 0.04745773 0.0445889 0.04007202 0.03460905 0.04022462 0.04312397
0.05398889 0.05374473 0.05289019 0.05096747 0.04770189 0.04284929 0.03634866 0.02945126 0.02923762 0.02923762 0.02990905 0.03036684 0.03195386 0.03320515 0.03509736 0.03753891 0.04001099 0.04315449 0.04657267 0.04974669 0.0536837 0.0579259 0.06204602 0.06564732 0.06891289 0.07239211 0.07559665 0.0786486 0.08060184 0.08298236 0.08438625 0.08569859 0.08685833 0.08777391 0.08841482 0.0893304 0.09003235 0.09018495 0.08981872 0.08936092 0.08841482 0.08774339 0.08710249 0.08612587 0.08511872 0.08389794 0.08380638 0.08322652 0.08206677 0.07989989 0.07712263 0.0742538 0.07132393 0.06918757 0.06674602 0.0642129 0.06238174 0.05951291 0.05606421 0.05224928 0.0480376 0.04321553 0.03833242 0.03457852 0.03122139 0.02847464 0.02572789 0.02288958 0.02017335 0.01730452 0.01715193 0.02948178 0.03851553 0.04486358 0.04907526 0.05166941 0.05310383 0.05377525 0.05398889 0.05398889 0.05392785 0.05347006 0.05231032 0.05005188 0.04614539 0.04007202 0.03213697 0.03604346 0.04056033 0.0445889 0.04931942 0.05420253 0.05951291 0.06442654 0.06967589 0.07489471 0.08060184 0.08603431 0.09143624 0.09729598 0.1029421 0.108283 0.1127999 0.1163096 0.1191784 0.1219252 0.1253128 0.127907 0.1304096 0.1329122 0.1355979 0.1389855 0.1420985 0.1450589 0.1477751 0.150766 0.153055 0.1543368 0.154642 0.1540621 0.1531466 0.1524751 0.1516816 0.1505219 0.1484466 0.1453336 0.1425258 0.1391686 0.1356894 0.1323933 0.1293414 0.1266557 0.1244888 0.1219252 0.1193615 0.1163401 0.1135018 0.1100836 0.1066349 0.1030641 0.1001038 0.09714338 0.09470183 0.09271806 0.09061222 0.08844534 0.08719404 0.08649209 0.08649209 0.08630898 0.08691937 0.0863395 0.08533236 0.08435573 0.08417262 0.08456937 0.08469145 0.08472197 0.08517976 0.0863395 0.08823171 0.09006287 0.09189404 0.09381676 0.09604468 0.09879143 0.1003479 0.1017213 0.1025148 0.102759 0.1038271 0.1052921 0.1077947 0.1096563 0.1109382 0.1121589 0.1131661 0.114631 0.1156076 0.1162485 0.1160654 0.1152109 0.1143258 0.1141122 0.1141122 0.1144479 0.1152414 0.1144784 0.1133492 0.1115486 0.1089544 0.1062992 0.1039492 0.1026979 0.1017518 0.1008362 0.09985961 0.0979674 0.09604468 0.09384728 0.0919856 0.09067326 0.08975767 0.08872002 0.08768235 0.08752976 0.08746871 0.08701093 0.08606482 0.08505768 0.08441678 0.0841421 0.08340963 0.08261613 0.08212782 0.08224989 0.08295184 0.08344015 0.083196 0.08234145 0.08102912 0.07956418 0.07858756 0.07715315 0.07590185 0.07532198 0.07498626 0.07294147 0.07071354 0.06808887 0.06567784 0.06335836 0.06146615 0.05978759 0.05862784 0.05780382 0.05786486 0.05798694 0.0576207 0.05688824 0.05606421 0.05603369 0.05563694 0.05441616 0.05218824 0.0503876 0.04925838 0.04880059 0.04849539 0.04837331 0.04843435 0.04864799 0.0489837 0.04941098 0.04986877 0.05035708 0.05084539 0.05130318 0.05173045 0.05206617 0.05237136 0.05261552 0.05279863 0.05292071 0.05298175 0.05301227 0.05298175 0.05289019 0.05270708 0.0524324 0.05200513 0.05136422 0.05124214 0.05005188 0.04901422 0.04745773 0.04519929 0.04123177 0.03729476 0.03180126 0.03506684 0.04074346 0.04501618
0.05395837 0.05356162 0.05231032 0.04983824 0.04574864 0.03985839 0.03213697 0.02786425 0.02771165 0.02795581 0.02795581 0.0293597 0.030611 0.03232009 0.03448697 0.03662333 0.0395532 0.04297137 0.04602332 0.04938046 0.05279863 0.05636941 0.06024538 0.06378563 0.06732589 0.07068302 0.07385705 0.07611549 0.07886223 0.08041873 0.08197522 0.08334859 0.08432522 0.0850882 0.08630898 0.08780443 0.08893365 0.08914728 0.08905573 0.08814014 0.08701093 0.08594275 0.084783 0.08417262 0.08276872 0.08234145 0.08185314 0.08102912 0.07947262 0.07690899 0.07388756 0.07077459 0.06848563 0.06604407 0.0632668 0.061222 0.05890252 0.05649149 0.05334798 0.04965513 0.04553501 0.04046878 0.03604346 0.03219801 0.0293597 0.02682659 0.02432399 0.02142465 0.01822011 0.01596167 0.0229201 0.03381554 0.04165903 0.04703046 0.05047916 0.05249344 0.0535311 0.05392785 0.05398889 0.05398889 0.05374473 0.05304279 0.05145578 0.04858695 0.04391748 0.03695904 0.03116035 0.03634866 0.04083501 0.04556552 0.05066227 0.05603369 0.06064213 0.0654642 0.07022523 0.07550509 0.08066288 0.08557651 0.09107001 0.09656351 0.1023317 0.1078862 0.1124336 0.1163706 0.1193005 0.122444 0.1254349 0.127968 0.1301349 0.1325459 0.1359336 0.139779 0.1434108 0.1460966 0.1488128 0.1512544 0.1533297 0.1548251 0.1551303 0.154581 0.1540927 0.1534823 0.153055 0.1519868 0.1496063 0.1466154 0.1431362 0.1392907 0.1351706 0.1314472 0.1286394 0.1265031 0.1238784 0.1215284 0.1187511 0.1161265 0.1126778 0.1094427 0.1055362 0.1019349 0.09839468 0.09564793 0.0935726 0.09146676 0.08896417 0.0869804 0.08563755 0.08496612 0.08435573 0.08511872 0.08499664 0.08417262 0.0828908 0.08231093 0.08264665 0.08286028 0.08279924 0.08243301 0.08246353 0.08377586 0.08548495 0.08725508 0.0885369 0.09015442 0.09271806 0.09485442 0.09686871 0.09787585 0.09793688 0.09845571 0.09927974 0.1016603 0.103644 0.1054447 0.1071538 0.1080083 0.109107 0.1101141 0.1112128 0.1115791 0.1111518 0.1101752 0.1095953 0.1095953 0.109809 0.1108161 0.110755 0.1104499 0.1094427 0.1074895 0.1050784 0.10282 0.1016297 0.1006836 0.1000122 0.09976805 0.0982726 0.09650247 0.09454922 0.0926265 0.09070378 0.08942196 0.08893365 0.08807911 0.08801807 0.08847586 0.08841482 0.08737716 0.08594275 0.08472197 0.08435573 0.0841421 0.08386742 0.08353171 0.08325703 0.08365379 0.08435573 0.08484405 0.08469145 0.08362327 0.08203626 0.08096807 0.07996093 0.07919795 0.07852652 0.07855704 0.07733627 0.07581029 0.07349081 0.07120185 0.06854667 0.06628823 0.06460965 0.06375511 0.06250381 0.06204602 0.0621681 0.06195446 0.06134408 0.0602759 0.05954343 0.05896356 0.05810902 0.05646097 0.05426357 0.05157785 0.05005188 0.04944149 0.04904474 0.04883111 0.04873955 0.04877007 0.04895318 0.04919734 0.04953305 0.04989929 0.05026552 0.05063175 0.05096747 0.05127266 0.05151682 0.05169993 0.05185253 0.05191357 0.05191357 0.05185253 0.05169993 0.05142526 0.0510285 0.05041812 0.04956357 0.04852591 0.04767137 0.0459928 0.04422267 0.04110969 0.03784411 0.03204541 0.03000061 0.03381554 0.03564671 0.04229994 0.04681682
0.05389733 0.05328694 0.05163889 0.04852591 0.04358176 0.03662333 0.02758957 0.02658243 0.02646036 0.02658243 0.02713178 0.02859672 0.02987853 0.03174022 0.03421229 0.03668437 0.03988891 0.04275773 0.04635903 0.04968565 0.05261552 0.05563694 0.058872 0.06250381 0.0656168 0.06927913 0.072209 0.07431484 0.07654276 0.07858756 0.07938106 0.08105963 0.08203626 0.08270769 0.08389794 0.08554599 0.08725508 0.08798755 0.08801807 0.08725508 0.08588171 0.08453885 0.08334859 0.08231093 0.08148691 0.08051029 0.07999145 0.07907587 0.07678691 0.07416224 0.07104926 0.06763108 0.06500641 0.06262589 0.05987914 0.05783434 0.05575902 0.05371422 0.05090643 0.04736617 0.04318501 0.03836294 0.03415126 0.03070256 0.02813892 0.02560581 0.02298114 0.02002075 0.01706037 0.01580907 0.0285662 0.0379967 0.04464994 0.04901422 0.05169993 0.05316487 0.05380578 0.05398889 0.05398889 0.05389733 0.05343954 0.05231032 0.05017396 0.04657267 0.04098761 0.032961 0.03048892 0.03549411 0.04138436 0.04642007 0.05206617 0.05719343 0.06167979 0.06695965 0.07129341 0.07620704 0.08112067 0.08582067 0.09082586 0.09604468 0.1015382 0.106757 0.111396 0.1153024 0.1188122 0.1218336 0.1245193 0.1272966 0.1296771 0.1333089 0.1370018 0.1410609 0.1448758 0.1474089 0.1495147 0.1520479 0.1540011 0.1557102 0.1556797 0.1546725 0.1540316 0.1535128 0.1532381 0.1521699 0.1502472 0.1471953 0.1434414 0.1398096 0.1353842 0.1322713 0.1289141 0.1266557 0.1243667 0.1218946 0.1188732 0.1151804 0.1115486 0.1083135 0.1041628 0.100409 0.09692974 0.09378624 0.0916804 0.08939144 0.08768235 0.08514924 0.08359275 0.08276872 0.08273821 0.083196 0.08249405 0.08200574 0.08057132 0.07999145 0.08044925 0.08057132 0.08051029 0.08011353 0.07996093 0.08093756 0.08249405 0.08420314 0.08551547 0.08704145 0.0891778 0.0915278 0.09329793 0.09348105 0.09415247 0.09409144 0.09491546 0.09659403 0.09848624 0.1001953 0.1017518 0.1031252 0.1040713 0.1050479 0.1064518 0.1065434 0.1065434 0.1058719 0.1052921 0.1057499 0.1057193 0.1066349 0.1065434 0.105994 0.1049258 0.1031862 0.101294 0.09931026 0.09866935 0.09799793 0.09757065 0.09757065 0.09631936 0.09485442 0.09335897 0.09149729 0.08972716 0.08844534 0.08832327 0.08771287 0.08798755 0.08841482 0.08841482 0.08737716 0.08588171 0.08496612 0.08444729 0.08463041 0.0850882 0.08505768 0.08456937 0.08499664 0.08588171 0.08646157 0.0861869 0.08554599 0.08392847 0.08255509 0.08203626 0.08142587 0.08130379 0.08087651 0.08008301 0.07907587 0.07651224 0.07407068 0.07175121 0.07040835 0.06915705 0.06827199 0.06729537 0.0668681 0.06677654 0.06610511 0.06537265 0.06384667 0.06271745 0.06204602 0.06094732 0.05899408 0.05603369 0.05371422 0.05179149 0.0503876 0.04938046 0.04904474 0.04883111 0.04873955 0.04877007 0.04886162 0.04904474 0.04925838 0.04950253 0.04974669 0.04996032 0.05017396 0.05032656 0.05041812 0.05044863 0.05041812 0.05026552 0.05002137 0.04962461 0.04904474 0.04822072 0.04712202 0.04562657 0.04382592 0.04205579 0.03930904 0.03631813 0.03143502 0.02688763 0.02700971 0.03006165 0.03448697 0.03817982 0.0447415 0.0492889
0.05380578 0.05292071 0.05084539 0.0470915 0.0412928 0.03323567 0.02441555 0.02542269 0.0252701 0.0249649 0.02612464 0.02765061 0.02975645 0.03201489 0.03399866 0.03650125 0.03985839 0.04321553 0.04663371 0.04983824 0.05301227 0.05545382 0.05838369 0.0613746 0.06509797 0.06775316 0.07059146 0.07330769 0.07501678 0.0762986 0.0778551 0.07925899 0.08026613 0.08090704 0.08237197 0.0839895 0.08588171 0.08664469 0.08673625 0.08603431 0.08435573 0.08298236 0.08170054 0.08087651 0.07993042 0.07870964 0.07803821 0.07648171 0.07419276 0.07181224 0.06827199 0.06512849 0.06225966 0.05923823 0.0569798 0.05469084 0.05307331 0.0514863 0.04849539 0.04516877 0.04074346 0.03634866 0.03189281 0.02893243 0.02652139 0.02411036 0.02127205 0.01855582 0.01587011 0.02285906 0.0339071 0.04187267 0.04727461 0.05072331 0.05267655 0.05362266 0.05395837 0.05398889 0.05395837 0.0536837 0.05285967 0.05121162 0.04834279 0.04382592 0.0372032 0.02792529 0.02942074 0.03518891 0.04095709 0.0470915 0.05267655 0.05813953 0.06293109 0.06747849 0.07233107 0.07687847 0.08151743 0.08588171 0.09049014 0.09552585 0.1006836 0.1061466 0.1105719 0.1142648 0.1172862 0.1198804 0.1235122 0.12632 0.1294024 0.1336446 0.138192 0.1418849 0.1454557 0.1481414 0.150705 0.1529329 0.1548862 0.1560459 0.1557712 0.1546725 0.1537264 0.153116 0.1527803 0.1522004 0.1500641 0.1474394 0.1438992 0.1397485 0.1358115 0.1328206 0.1300128 0.1276933 0.1250992 0.1219252 0.1180187 0.1143258 0.1104499 0.1069096 0.102759 0.09866935 0.09519014 0.09213819 0.08981872 0.08765183 0.08542392 0.08365379 0.0819447 0.08130379 0.08118171 0.08105963 0.08072392 0.07932003 0.07822133 0.07782458 0.07773302 0.07816029 0.07767197 0.07724471 0.07709211 0.07791613 0.07944211 0.08090704 0.08243301 0.08337911 0.08575962 0.08786547 0.08899469 0.08981872 0.08997131 0.0891778 0.08997131 0.09113105 0.09247391 0.09421352 0.0959226 0.09732649 0.09851675 0.09995117 0.101294 0.1019349 0.1019044 0.101294 0.1008973 0.1014771 0.1015992 0.1018129 0.1017823 0.1008667 0.1002869 0.09894402 0.09689923 0.09555637 0.09479338 0.09424403 0.09479338 0.09467131 0.09421352 0.09308429 0.09186351 0.0904291 0.08881158 0.08823171 0.08774339 0.08786547 0.08804858 0.08850638 0.08817066 0.08710249 0.08591223 0.08487456 0.08530184 0.08569859 0.08606482 0.08566807 0.08603431 0.08640054 0.08746871 0.08829274 0.08841482 0.08731612 0.08637002 0.0852408 0.08466093 0.0841421 0.08371483 0.08383691 0.08316547 0.08215833 0.0795947 0.07776354 0.07584081 0.07419276 0.07397912 0.07309406 0.07227004 0.07193432 0.07138497 0.07059146 0.06930965 0.06769212 0.06628823 0.06503693 0.06372459 0.06183239 0.05899408 0.05578954 0.05398889 0.05191357 0.05002137 0.04910578 0.04877007 0.04855643 0.04840383 0.04837331 0.04837331 0.04843435 0.04852591 0.04861747 0.04870903 0.04877007 0.04877007 0.04870903 0.04855643 0.04828176 0.047885 0.04730513 0.04654215 0.04547397 0.04410059 0.04223891 0.03985839 0.03753891 0.03439541 0.02997009 0.02609412 0.02066166 0.02356101 0.02792529 0.0304584 0.03558567 0.03872917 0.04757981 0.05151682
0.0536837 0.05255448 0.05002137 0.04559604 0.03891229 0.02978697 0.02340841 0.02441555 0.02484282 0.02508698 0.02642984 0.02801685 0.03054996 0.03201489 0.0347006 0.03756943 0.04068241 0.04416163 0.04745773 0.05054019 0.0535311 0.05560642 0.05853629 0.06155771 0.06448758 0.06763108 0.06973692 0.07217848 0.07321614 0.07468107 0.07614601 0.07767197 0.07922847 0.07993042 0.08133431 0.08234145 0.08402002 0.08554599 0.08542392 0.08450833 0.083196 0.08185314 0.08093756 0.0797473 0.07831289 0.07712263 0.07568821 0.0741012 0.07165965 0.0690655 0.06537265 0.06229018 0.05942135 0.0568272 0.05435512 0.0522798 0.05066227 0.04901422 0.04687786 0.04333761 0.03882073 0.03467008 0.03006165 0.02707074 0.02429347 0.02151621 0.019624 0.01678569 0.01675517 0.0293597 0.03869865 0.04522981 0.04950253 0.05203564 0.05334798 0.05389733 0.05398889 0.05398889 0.05380578 0.05319539 0.05188305 0.04956357 0.0458402 0.04025514 0.03238112 0.0227675 0.02740646 0.03354087 0.04016358 0.04684734 0.05267655 0.05789538 0.06320576 0.06784472 0.07266679 0.07736678 0.08182262 0.08563755 0.0897882 0.09448819 0.09982909 0.1048038 0.1096563 0.112983 0.1153635 0.1184765 0.1215589 0.1255265 0.1295855 0.1341635 0.1391381 0.142831 0.1458829 0.1482024 0.150766 0.1529329 0.1550998 0.1561375 0.1557712 0.1547641 0.1535738 0.1532076 0.152231 0.1515595 0.1499725 0.1471037 0.1437466 0.1399622 0.1366966 0.1337362 0.13102 0.1283343 0.1252518 0.1215895 0.1175609 0.1134713 0.1097479 0.1061161 0.1018129 0.09750962 0.09360313 0.08994079 0.08691937 0.08490509 0.08292132 0.08136483 0.07999145 0.07874016 0.0786486 0.07828236 0.07794665 0.07758042 0.07617652 0.07553562 0.07523042 0.07504731 0.07468107 0.07407068 0.074559 0.07492523 0.07657328 0.07767197 0.07919795 0.07999145 0.08157846 0.08380638 0.08493561 0.08514924 0.08536287 0.08514924 0.08521028 0.08560703 0.08704145 0.08847586 0.09024598 0.09161936 0.09320638 0.09494598 0.09573948 0.09625831 0.09610572 0.09589209 0.09610572 0.09625831 0.09671611 0.09671611 0.09653299 0.09677715 0.09583104 0.09485442 0.09366416 0.09189404 0.09146676 0.09094793 0.09113105 0.0913752 0.09088689 0.09055118 0.08957456 0.08911677 0.08774339 0.08756027 0.0875908 0.0874382 0.08749924 0.08792651 0.08798755 0.0872856 0.08704145 0.08612587 0.08630898 0.08673625 0.08670573 0.08658365 0.08664469 0.08737716 0.08862846 0.08954404 0.08991027 0.08905573 0.08814014 0.0872856 0.08704145 0.08704145 0.08688885 0.08719404 0.08652262 0.08527131 0.08344015 0.08176158 0.07983886 0.07822133 0.0778551 0.07751938 0.07693951 0.07620704 0.07544406 0.07443692 0.07294147 0.07175121 0.07028627 0.06872978 0.06668498 0.06387719 0.06143563 0.05835317 0.05575902 0.05374473 0.05145578 0.0489837 0.04855643 0.0481902 0.04791552 0.04770189 0.04754929 0.04745773 0.04736617 0.04727461 0.04715253 0.04699994 0.04675578 0.04645059 0.04602332 0.04544345 0.04464994 0.0436428 0.04229994 0.04059086 0.03839346 0.03558567 0.03204541 0.02847464 0.02389672 0.01767076 0.01870842 0.01950192 0.02383568 0.0271623 0.03204541 0.03564671 0.04059086 0.04907526 0.05350058
0.0535311 0.0521272 0.0491363 0.04410059 0.03659281 0.02639932 0.02270646 0.02407984 0.02450711 0.02554477 0.02652139 0.02829152 0.03073308 0.03344931 0.03622658 0.03857657 0.04126228 0.04434475 0.04742721 0.05127266 0.05377525 0.056522 0.0590246 0.06186291 0.06515901 0.067509 0.06976745 0.07074407 0.07242263 0.07419276 0.07547458 0.07761094 0.07935055 0.07977782 0.08118171 0.08206677 0.08282976 0.08371483 0.08377586 0.08234145 0.08112067 0.07989989 0.07907587 0.07825185 0.07639016 0.074559 0.07254471 0.07114082 0.06869926 0.06601355 0.06296161 0.05893304 0.05624733 0.05420253 0.05179149 0.05029604 0.04883111 0.04742721 0.04492462 0.04095709 0.03686748 0.03241165 0.02807789 0.02465971 0.02154673 0.01925777 0.01712141 0.01550388 0.02441555 0.03512788 0.04284929 0.0480376 0.05124214 0.05301227 0.05377525 0.05398889 0.05398889 0.05389733 0.05343954 0.05237136 0.05041812 0.04724409 0.04245254 0.03564671 0.02639932 0.02157724 0.02597204 0.03128242 0.03793567 0.04504669 0.05112007 0.05749863 0.06244278 0.06778368 0.07245316 0.07654276 0.08112067 0.08441678 0.08868949 0.09393884 0.09940182 0.104346 0.1089544 0.1124947 0.1150278 0.117744 0.1210706 0.1254349 0.1301654 0.1348044 0.1393518 0.1425258 0.1452725 0.1475005 0.1492706 0.1521699 0.1543063 0.1553439 0.1554966 0.1541232 0.1534517 0.1527803 0.1516816 0.150644 0.1485381 0.1463407 0.1435024 0.140542 0.1378563 0.1347739 0.1318745 0.1282427 0.1253128 0.1206739 0.1170115 0.1128609 0.109107 0.1050479 0.1007142 0.09616676 0.0915278 0.08756027 0.08432522 0.08197522 0.07980834 0.07840444 0.07700055 0.07654276 0.07529146 0.07504731 0.07480315 0.07474211 0.07474211 0.07361289 0.0731551 0.07217848 0.07138497 0.07162913 0.07165965 0.07272783 0.07388756 0.07486419 0.07571873 0.07642068 0.07770249 0.07916743 0.08057132 0.08118171 0.08127327 0.08148691 0.08102912 0.08163951 0.08209729 0.08310444 0.0841421 0.08566807 0.08798755 0.08920833 0.0905817 0.09100898 0.09039858 0.09027651 0.08954404 0.09061222 0.09128365 0.09161936 0.09256546 0.09216871 0.09241287 0.09140573 0.09045962 0.08923884 0.08810963 0.08783495 0.08713301 0.0874382 0.08734664 0.0874382 0.08752976 0.08740768 0.08765183 0.08762132 0.08722456 0.08701093 0.08701093 0.0875908 0.08765183 0.08847586 0.08850638 0.08884209 0.08890313 0.08847586 0.08820118 0.08746871 0.08780443 0.08865897 0.08981872 0.09067326 0.09097845 0.09061222 0.09015442 0.08951352 0.08991027 0.08960508 0.08936092 0.08969664 0.08926936 0.08844534 0.08664469 0.08499664 0.08395898 0.08228041 0.08157846 0.08154795 0.08160898 0.08051029 0.07919795 0.07816029 0.07635964 0.07559665 0.07364341 0.07169016 0.06891289 0.06610511 0.06372459 0.06103888 0.05826161 0.05527071 0.05289019 0.05035708 0.04815968 0.04767137 0.04724409 0.04687786 0.04654215 0.04623695 0.04593176 0.04562657 0.04526033 0.04483306 0.04431423 0.04367332 0.04284929 0.04184216 0.04052982 0.03888177 0.03683697 0.03427333 0.03103827 0.02704022 0.02203504 0.01669413 0.01590063 0.01544284 0.01828115 0.02066166 0.02435451 0.02804737 0.03241165 0.03756943 0.04196423 0.04931942 0.05621681
0.0533785 0.05169993 0.04831228 0.04266618 0.03436489 0.02322529 0.02121101 0.02316426 0.02438503 0.02554477 0.02646036 0.02847464 0.03079412 0.03351035 0.03711164 0.03933956 0.04156748 0.0447415 0.04773241 0.05160838 0.05456876 0.05630837 0.05923823 0.06219862 0.06555576 0.06799731 0.06955381 0.0708051 0.07211744 0.0742538 0.07577977 0.07816029 0.07910639 0.08011353 0.08029665 0.08130379 0.08212782 0.08246353 0.08185314 0.08017457 0.07867911 0.07779405 0.07693951 0.07483367 0.07333822 0.07098822 0.07007264 0.0679668 0.0656168 0.06323628 0.0598181 0.05679668 0.05371422 0.05215772 0.05014344 0.04843435 0.04751877 0.04541293 0.04257462 0.03906488 0.0348532 0.03021425 0.02554477 0.02209608 0.01907465 0.01654154 0.01458829 0.01913569 0.03116035 0.04007202 0.04626747 0.050235 0.05252396 0.05359214 0.05395837 0.05398889 0.05392785 0.05359214 0.05270708 0.0510285 0.04825123 0.04407007 0.03808826 0.02990905 0.01907465 0.02066166 0.02465971 0.03027529 0.03631813 0.0426967 0.04922786 0.05554538 0.06180187 0.06668498 0.07138497 0.07544406 0.07932003 0.08334859 0.08777391 0.09299274 0.09854727 0.103644 0.1086492 0.11222 0.1156992 0.1182018 0.1214063 0.1254044 0.1304706 0.1352622 0.1386498 0.1415492 0.1431667 0.1453641 0.1479277 0.1505524 0.1524751 0.1535128 0.1535433 0.1529329 0.152231 0.1520479 0.1507966 0.1488433 0.146707 0.1441433 0.1419764 0.1398096 0.137429 0.1349875 0.13102 0.1273271 0.123268 0.1197278 0.1155466 0.1118843 0.1079473 0.1032473 0.09918818 0.09421352 0.08972716 0.08511872 0.08151743 0.07916743 0.07697003 0.07577977 0.07416224 0.07309406 0.07202588 0.07153757 0.07208692 0.07202588 0.07169016 0.07104926 0.07007264 0.0690655 0.0687603 0.06897394 0.06937069 0.07031679 0.07065251 0.07104926 0.07208692 0.07281938 0.07416224 0.07516938 0.07657328 0.07770249 0.07797717 0.07846548 0.07855704 0.07812977 0.07797717 0.07803821 0.0789538 0.08026613 0.08188366 0.08402002 0.08438625 0.08487456 0.08429469 0.08405054 0.08392847 0.08438625 0.08575962 0.08667521 0.08716352 0.08771287 0.08774339 0.08752976 0.08667521 0.08637002 0.08514924 0.08463041 0.08365379 0.08325703 0.08365379 0.08423366 0.08517976 0.08600378 0.08661418 0.08737716 0.08667521 0.08643106 0.08597326 0.08624794 0.08780443 0.08868949 0.09009339 0.09085637 0.09079534 0.09079534 0.08975767 0.08951352 0.08951352 0.08987975 0.09116157 0.09180248 0.09274858 0.09232131 0.09222975 0.09210767 0.09201612 0.09207715 0.09210767 0.09271806 0.09229079 0.09143624 0.08972716 0.08887261 0.08768235 0.0861869 0.08588171 0.08548495 0.08554599 0.08484405 0.083196 0.0817921 0.07968626 0.07846548 0.07666484 0.07400964 0.07111029 0.06805836 0.06607459 0.06360251 0.06094732 0.05798694 0.05539279 0.0532259 0.05108954 0.04962461 0.04751877 0.04587072 0.04535189 0.04483306 0.04428371 0.04370384 0.04306293 0.04233047 0.04141488 0.0403467 0.03906488 0.03744736 0.03549411 0.03311359 0.03015321 0.02652139 0.02203504 0.01928829 0.01785387 0.01785387 0.01730452 0.0166331 0.01956296 0.02118049 0.02600256 0.02896295 0.03305256 0.03753891 0.04226942 0.05154733 0.0587194
0.0532259 0.05130318 0.04751877 0.04135384 0.03238112 0.02038699 0.01992919 0.021974 0.0240188 0.02514802 0.02673503 0.02884087 0.03143502 0.03430385 0.03796618 0.0404993 0.04260514 0.04565708 0.04837331 0.05203564 0.05453824 0.05661356 0.0591772 0.06149668 0.06464018 0.06723433 0.06949276 0.07123238 0.07242263 0.07419276 0.07611549 0.07800769 0.07944211 0.08011353 0.08035769 0.08057132 0.08145639 0.08133431 0.08054081 0.07858756 0.07648171 0.07584081 0.07388756 0.07254471 0.07025576 0.06848563 0.0668681 0.06558628 0.06430446 0.06149668 0.05838369 0.05481292 0.05206617 0.05035708 0.04837331 0.04672527 0.04562657 0.04342917 0.04004151 0.0359519 0.03207593 0.02789477 0.02377464 0.02020387 0.01721296 0.01455777 0.01345907 0.02676555 0.036898 0.04416163 0.04895318 0.05185253 0.05331746 0.05389733 0.05398889 0.05398889 0.05371422 0.05298175 0.05151682 0.04904474 0.04529085 0.03994995 0.03259476 0.02285906 0.01623634 0.02008179 0.02380516 0.02881035 0.03421229 0.04077397 0.04715253 0.05319539 0.05987914 0.06494537 0.06988952 0.07416224 0.07794665 0.08228041 0.08664469 0.09247391 0.09741805 0.10282 0.1079778 0.1124336 0.1159434 0.1187511 0.1221083 0.1258316 0.1298602 0.1343161 0.1369102 0.1396264 0.1415492 0.1430751 0.1458524 0.1482329 0.1502777 0.1518342 0.1520479 0.1510102 0.1505829 0.1503083 0.1487212 0.1472258 0.1446011 0.142068 0.1403284 0.1385583 0.1359031 0.1330648 0.1297992 0.125618 0.1213453 0.1175609 0.1132882 0.1099615 0.1058719 0.1008362 0.09668559 0.09158884 0.0872856 0.0830434 0.07919795 0.07669535 0.07495575 0.07361289 0.072209 0.07098822 0.07004212 0.0687603 0.06900445 0.06930965 0.06879082 0.06851614 0.06729537 0.06653238 0.06528109 0.06604407 0.06634927 0.0672038 0.06760056 0.06805836 0.06891289 0.06897394 0.07010315 0.07199536 0.07294147 0.0744064 0.07523042 0.07547458 0.0756577 0.07526094 0.07501678 0.07468107 0.07474211 0.07489471 0.07654276 0.07764146 0.07831289 0.07886223 0.07828236 0.07840444 0.07886223 0.07968626 0.08032717 0.08139535 0.08224989 0.08252457 0.08249405 0.08221938 0.08261613 0.08228041 0.08115119 0.08075444 0.07983886 0.07989989 0.08072392 0.08167002 0.08313496 0.08438625 0.08551547 0.08606482 0.08542392 0.08551547 0.08566807 0.08579015 0.0869804 0.08862846 0.09049014 0.09177196 0.09280962 0.09299274 0.0919856 0.09186351 0.09125313 0.09207715 0.09271806 0.09406091 0.09457975 0.09479338 0.09461027 0.09415247 0.09409144 0.09421352 0.09442715 0.0948239 0.09519014 0.09424403 0.09317585 0.09219923 0.09171092 0.09049014 0.09064274 0.09067326 0.09067326 0.0893304 0.08725508 0.08536287 0.08337911 0.08127327 0.07971678 0.07681743 0.07349081 0.07046939 0.06869926 0.06662394 0.063572 0.06048953 0.05804798 0.05670512 0.05487395 0.0532259 0.05105902 0.04870903 0.04724409 0.04556552 0.04330709 0.04156748 0.04056033 0.03943112 0.03811878 0.03656229 0.03467008 0.03241165 0.0296649 0.02633828 0.02404932 0.02243179 0.0208753 0.02011231 0.01846426 0.01754868 0.01791491 0.0175792 0.02026491 0.02224867 0.02679607 0.03097723 0.03445645 0.03808826 0.04315449 0.05279863 0.06024538
0.05307331 0.05093694 0.04684734 0.04022462 0.03070256 0.01800647 0.01892205 0.02096686 0.02365257 0.02572789 0.02694867 0.0295123 0.03259476 0.03570775 0.03897332 0.04202527 0.04419215 0.04669474 0.04962461 0.05270708 0.05524019 0.05685772 0.058872 0.06116096 0.06378563 0.06689861 0.06924861 0.07111029 0.07284991 0.07458951 0.07672587 0.07837392 0.07901483 0.07968626 0.07986937 0.08029665 0.08057132 0.08041873 0.07962522 0.0773973 0.07571873 0.0742538 0.07245316 0.07022523 0.06757005 0.06601355 0.06457914 0.06412134 0.06293109 0.05984862 0.05719343 0.05389733 0.05032656 0.0491363 0.04715253 0.04532137 0.04400903 0.04120125 0.03787462 0.03372398 0.02939022 0.02584997 0.02230971 0.01937984 0.01626686 0.01330648 0.02188244 0.03323567 0.041598 0.04736617 0.05096747 0.05292071 0.05377525 0.05398889 0.05398889 0.05383629 0.0532259 0.05191357 0.04971617 0.04629799 0.04141488 0.03473112 0.02584997 0.01446621 0.01590063 0.01965452 0.02340841 0.02749802 0.03235061 0.0384545 0.04486358 0.05121162 0.05768174 0.06360251 0.06842458 0.07303302 0.07700055 0.08160898 0.08569859 0.09125313 0.09668559 0.102057 0.1070012 0.1120064 0.1160654 0.1193921 0.122444 0.1259232 0.1296466 0.1330342 0.135781 0.1371544 0.138955 0.1412745 0.1435329 0.1460966 0.1480498 0.1489654 0.1495147 0.1490875 0.1481414 0.1478056 0.1463712 0.1441738 0.1417933 0.1392602 0.1376732 0.1359336 0.1340414 0.1316914 0.1275102 0.1236648 0.1196362 0.1151498 0.1113349 0.1073674 0.1024843 0.09818104 0.09348105 0.08936092 0.08517976 0.08096807 0.07742782 0.07504731 0.07312458 0.07181224 0.07053043 0.06903498 0.06790575 0.06699017 0.06644082 0.06662394 0.06579991 0.06503693 0.0642129 0.06354147 0.06283953 0.06299213 0.063572 0.06399927 0.06445706 0.06497589 0.06522004 0.06564732 0.06695965 0.06830251 0.07071354 0.07111029 0.07175121 0.07288042 0.07330769 0.0731551 0.07196485 0.07132393 0.07037783 0.0701642 0.07138497 0.07187328 0.07223952 0.07309406 0.07321614 0.07349081 0.07416224 0.07465056 0.07574925 0.07654276 0.0766038 0.07724471 0.07724471 0.07736678 0.07797717 0.07803821 0.0775499 0.07666484 0.07632912 0.07651224 0.07779405 0.07944211 0.08102912 0.08215833 0.08362327 0.08386742 0.08395898 0.08429469 0.08432522 0.08502716 0.08640054 0.08865897 0.09021547 0.09192456 0.09375572 0.09427455 0.09451871 0.09360313 0.0937252 0.094183 0.09479338 0.09619728 0.09656351 0.0971739 0.09677715 0.09641092 0.0963804 0.09641092 0.09723493 0.09808949 0.09836416 0.09754013 0.09699078 0.09644143 0.09564793 0.09546481 0.09546481 0.09601416 0.09573948 0.09433559 0.0916804 0.08914728 0.08667521 0.08447781 0.08203626 0.07886223 0.07553562 0.07245316 0.07092718 0.06903498 0.0665629 0.06430446 0.06143563 0.06024538 0.058872 0.0568272 0.05475188 0.05267655 0.05014344 0.04782397 0.04550449 0.04275773 0.04092657 0.03912592 0.03805774 0.03665385 0.03479216 0.03225905 0.0292071 0.0262162 0.02407984 0.02279802 0.02191296 0.02032595 0.01913569 0.01751816 0.01879998 0.01870842 0.02063114 0.02411036 0.02835256 0.03122139 0.03573827 0.04025514 0.04413111 0.05331746 0.06085576
0.05295123 0.05066227 0.04632851 0.03937008 0.02939022 0.0161753 0.01779283 0.02075322 0.02328633 0.02545321 0.02789477 0.03033632 0.03354087 0.03695904 0.0403467 0.04321553 0.04596228 0.04840383 0.05173045 0.05401941 0.05597265 0.05728499 0.05920772 0.06100836 0.06348044 0.06610511 0.06821095 0.07059146 0.07281938 0.07498626 0.07663432 0.07840444 0.07867911 0.07928951 0.07971678 0.07993042 0.08102912 0.08072392 0.07910639 0.07703107 0.07513887 0.07294147 0.07147653 0.06900445 0.06653238 0.06454862 0.06332784 0.06299213 0.06177135 0.05926875 0.05661356 0.05279863 0.04983824 0.04724409 0.04532137 0.04407007 0.04208631 0.03903437 0.03567722 0.0317097 0.02792529 0.02374412 0.02032595 0.01812855 0.01544284 0.0164805 0.02899347 0.03851553 0.04532137 0.04977721 0.05234084 0.05356162 0.05395837 0.05398889 0.05389733 0.05343954 0.05231032 0.05029604 0.04718306 0.0426967 0.03653177 0.02835256 0.01788439 0.01120063 0.01535128 0.01941036 0.02337789 0.02752854 0.03161814 0.03677592 0.04266618 0.04901422 0.0554233 0.06076421 0.06637979 0.07114082 0.07553562 0.0803882 0.08517976 0.09039858 0.09625831 0.1011109 0.1063908 0.1109076 0.1151193 0.1186291 0.1226271 0.1258622 0.128792 0.1312946 0.1328511 0.1352011 0.1368492 0.138894 0.1412134 0.1437771 0.1456082 0.1467375 0.1468901 0.1468596 0.1460355 0.1455777 0.1442349 0.142129 0.1400537 0.1372459 0.1354758 0.1334005 0.1321187 0.129555 0.1262589 0.1220778 0.1177745 0.1131356 0.109107 0.1049564 0.1003479 0.09534273 0.0913752 0.08716352 0.08307391 0.07983886 0.0762986 0.07397912 0.07211744 0.07037783 0.06891289 0.067509 0.06589147 0.06515901 0.06451809 0.06418239 0.06348044 0.0624733 0.06171031 0.06070317 0.06036745 0.06039798 0.06100836 0.0610694 0.06167979 0.06149668 0.06238174 0.06238174 0.06308369 0.06479277 0.06677654 0.06814991 0.06909601 0.06988952 0.07092718 0.07007264 0.06897394 0.06830251 0.06726485 0.06665446 0.06616615 0.06653238 0.06619667 0.06723433 0.06814991 0.0687603 0.06952329 0.07049991 0.07101874 0.07138497 0.07193432 0.0715986 0.0723616 0.07297198 0.07339925 0.07367393 0.07327718 0.07269731 0.07294147 0.07352133 0.07507782 0.07697003 0.07803821 0.07953367 0.080846 0.08160898 0.08170054 0.08237197 0.08301288 0.08392847 0.08536287 0.08774339 0.08981872 0.09177196 0.094183 0.09528169 0.09580053 0.09540378 0.09558689 0.09583104 0.09723493 0.09808949 0.09912714 0.09915766 0.09885247 0.09885247 0.09888299 0.0993713 0.1003784 0.1013551 0.1019044 0.1014161 0.1010194 0.1007447 0.1003479 0.1006531 0.1011414 0.1007142 0.09989013 0.09830312 0.09558689 0.09335897 0.09024598 0.08756027 0.08514924 0.08130379 0.07816029 0.07516938 0.07376549 0.07202588 0.07007264 0.06793627 0.06518953 0.06378563 0.06225966 0.0598181 0.05749863 0.05487395 0.05270708 0.05035708 0.04739669 0.0447415 0.04257462 0.04138436 0.0395532 0.03793567 0.03601294 0.03317463 0.02993957 0.02676555 0.02407984 0.02249283 0.02179088 0.02081426 0.01986816 0.01895257 0.02081426 0.02075322 0.0229201 0.02667399 0.02972594 0.0328084 0.03558567 0.04083501 0.04577916 0.05600318 0.0624733
0.05285967 0.05047916 0.0459928 0.03879021 0.02853568 0.01590063 0.01825063 0.02066166 0.02325581 0.02581945 0.02932918 0.03219801 0.03521943 0.03839346 0.04208631 0.04504669 0.04770189 0.05078435 0.05316487 0.0554233 0.05774278 0.05936031 0.06052005 0.06192394 0.06348044 0.0654642 0.06747849 0.0700116 0.07294147 0.0751999 0.07730574 0.07834341 0.07867911 0.07950314 0.08023561 0.08109015 0.08197522 0.0809986 0.07968626 0.07700055 0.07428432 0.07297198 0.07111029 0.06891289 0.06665446 0.06418239 0.06335836 0.06241225 0.06082524 0.0591772 0.05624733 0.05289019 0.0492889 0.04663371 0.04440579 0.04287981 0.0406519 0.03781359 0.03457852 0.03079412 0.02652139 0.02298114 0.01980712 0.01724348 0.01434414 0.02411036 0.03482268 0.04275773 0.04815968 0.0514863 0.0532259 0.05386681 0.05398889 0.05395837 0.05362266 0.05267655 0.05090643 0.0480376 0.04388696 0.03817982 0.030611 0.0208753 0.008637002 0.00982726 0.01464933 0.01937984 0.02325581 0.02722334 0.03122139 0.0359519 0.04101813 0.04626747 0.05197461 0.05832265 0.06384667 0.06885186 0.07449795 0.07947262 0.08472197 0.08991027 0.09467131 0.09964597 0.104346 0.1085576 0.1131356 0.1169505 0.1211011 0.1246719 0.1273576 0.129555 0.1308979 0.1328206 0.135018 0.1374596 0.1396875 0.1416102 0.1428615 0.1440518 0.1446011 0.1447232 0.1445706 0.1439907 0.1425258 0.1408777 0.1380394 0.1359031 0.1337972 0.1313557 0.1301349 0.1278459 0.124733 0.120857 0.1161875 0.1110297 0.1072758 0.1031862 0.09839468 0.09393884 0.0897882 0.08514924 0.08142587 0.07852652 0.0753525 0.07336874 0.07101874 0.06927913 0.06763108 0.06604407 0.06497589 0.06439602 0.06351095 0.06293109 0.06186291 0.06042849 0.05932979 0.05856681 0.05838369 0.05838369 0.05832265 0.05874992 0.05859733 0.05823109 0.05884148 0.05884148 0.05972654 0.06158823 0.06293109 0.06488433 0.06598303 0.06735641 0.06787524 0.06723433 0.06607459 0.06491485 0.06351095 0.06277849 0.06250381 0.06158823 0.06158823 0.06174083 0.06283953 0.06409083 0.06515901 0.06567784 0.06622718 0.06637979 0.06744796 0.06802783 0.06839406 0.06937069 0.07022523 0.07019471 0.06995056 0.06961484 0.06964536 0.07065251 0.07175121 0.07355185 0.07468107 0.0762986 0.07794665 0.07925899 0.07968626 0.08029665 0.08109015 0.0830434 0.08496612 0.08719404 0.08954404 0.09155832 0.09384728 0.09564793 0.09665507 0.09665507 0.09680767 0.09754013 0.09848624 0.09998169 0.1008667 0.1011719 0.1016297 0.1016297 0.1028505 0.1034609 0.1045901 0.1054447 0.1055362 0.1065739 0.1056278 0.1051395 0.1054142 0.1052921 0.1053836 0.1050479 0.1033083 0.1014466 0.09940182 0.09692974 0.09442715 0.09125313 0.08817066 0.08453885 0.080846 0.07831289 0.07690899 0.07489471 0.07373497 0.07156809 0.06915705 0.0665629 0.06485381 0.06219862 0.05954343 0.05658304 0.05417201 0.05185253 0.04974669 0.04699994 0.04477202 0.04303241 0.04086553 0.03958371 0.0370506 0.03436489 0.03070256 0.02728438 0.02456815 0.02227919 0.02142465 0.02075322 0.01980712 0.01971556 0.02084478 0.02206556 0.02420192 0.0271623 0.0315571 0.03418177 0.0370506 0.04150644 0.0469389 0.05649149 0.06424342
0.05282915 0.0503876 0.0458402 0.03854606 0.02816944 0.01702985 0.01892205 0.02200452 0.02490386 0.02783373 0.03146555 0.03506684 0.03766099 0.04095709 0.04391748 0.04669474 0.04965513 0.05273759 0.05490448 0.05716291 0.05948239 0.06143563 0.06268694 0.06366356 0.06448758 0.06567784 0.06757005 0.0701642 0.07309406 0.07596289 0.0778551 0.0786486 0.07953367 0.0803882 0.08170054 0.08310444 0.08313496 0.08246353 0.08017457 0.07764146 0.07465056 0.07291094 0.07089666 0.06915705 0.06683758 0.06445706 0.0632668 0.06103888 0.05951291 0.0577733 0.05514863 0.05240188 0.04925838 0.04660319 0.04428371 0.04251358 0.0404993 0.03781359 0.03424281 0.03051944 0.02728438 0.02295062 0.01959348 0.01620582 0.01846426 0.03036684 0.03952268 0.04602332 0.05026552 0.05264603 0.0536837 0.05398889 0.05398889 0.05380578 0.05307331 0.05151682 0.04892267 0.04510773 0.03982787 0.03277788 0.02368309 0.01229933 0.00436428 0.008972716 0.013337 0.01797595 0.02218763 0.02670451 0.03109931 0.03537203 0.03961423 0.04468046 0.05011292 0.05563694 0.06183239 0.06811939 0.07339925 0.07898431 0.08359275 0.08835378 0.09280962 0.09766221 0.1018434 0.1056888 0.1101141 0.1147531 0.1197278 0.1234817 0.126442 0.1276628 0.1295245 0.1317219 0.133492 0.1361777 0.1380089 0.1394128 0.1406946 0.1416712 0.1430446 0.1436245 0.1435024 0.1426479 0.1412134 0.1393518 0.1379174 0.1358725 0.1330342 0.1304401 0.1289141 0.1265946 0.1235122 0.1194531 0.1149667 0.1102973 0.1056583 0.1015382 0.09726546 0.09290118 0.08835378 0.08408106 0.08026613 0.07706159 0.0751999 0.07306354 0.07068302 0.06827199 0.0664103 0.06564732 0.06430446 0.06348044 0.06256485 0.06100836 0.05963499 0.05804798 0.05710188 0.0558811 0.05539279 0.05527071 0.05524019 0.05566746 0.05585058 0.0555759 0.05554538 0.05618629 0.05630837 0.05737655 0.05923823 0.06058109 0.06219862 0.063572 0.06366356 0.06317525 0.06155771 0.06030641 0.06003174 0.05914668 0.05881096 0.05795642 0.05688824 0.05710188 0.05813953 0.05951291 0.06039798 0.06109992 0.06161875 0.0620155 0.06348044 0.06460965 0.06555576 0.0664103 0.06689861 0.06695965 0.0665629 0.06653238 0.06677654 0.06818043 0.06982848 0.07086614 0.07263627 0.07333822 0.07489471 0.07635964 0.07742782 0.07861808 0.07968626 0.08218885 0.08481353 0.08731612 0.08972716 0.09164988 0.09390832 0.09567845 0.09720442 0.09744857 0.09720442 0.09839468 0.09976805 0.1014771 0.1023317 0.1027895 0.1040103 0.1054752 0.1070927 0.1080999 0.1081304 0.1089544 0.1102057 0.1111518 0.1109687 0.1109687 0.110694 0.1108466 0.110755 0.109107 0.1072148 0.1045596 0.1024538 0.1007447 0.0982726 0.09534273 0.09177196 0.08798755 0.08487456 0.08231093 0.08105963 0.0795947 0.07764146 0.07529146 0.07223952 0.07010315 0.0676616 0.0646707 0.06128304 0.05835317 0.05575902 0.05340902 0.05145578 0.04858695 0.04602332 0.04428371 0.04184216 0.04040774 0.0379967 0.03512788 0.03189281 0.028261 0.02487334 0.02237075 0.02084478 0.01999023 0.01941036 0.02002075 0.0207227 0.02356101 0.02618568 0.02832204 0.0325032 0.03463957 0.03775255 0.04211683 0.04754929 0.05725447 0.06415187
0.05285967 0.05041812 0.04587072 0.03863761 0.02829152 0.01861686 0.02130257 0.02404932 0.02707074 0.03027529 0.03366295 0.03717268 0.04059086 0.04321553 0.04614539 0.04852591 0.05179149 0.0543246 0.05664408 0.05850577 0.06125252 0.06354147 0.06473173 0.06622718 0.06662394 0.06753952 0.06943173 0.07162913 0.07486419 0.07736678 0.07916743 0.08023561 0.08096807 0.08240249 0.08340963 0.08463041 0.08490509 0.083196 0.08081548 0.07812977 0.07556614 0.07297198 0.07132393 0.06934017 0.06723433 0.06448758 0.0624733 0.06058109 0.05908564 0.05688824 0.0547824 0.05194409 0.04962461 0.04690838 0.04468046 0.04291033 0.04043826 0.03827138 0.03506684 0.03180126 0.02771165 0.02380516 0.01983764 0.01580907 0.02499542 0.03543307 0.04318501 0.04849539 0.05169993 0.05334798 0.05392785 0.05398889 0.05392785 0.05343954 0.05215772 0.04989929 0.04638955 0.04150644 0.0350058 0.02655191 0.01590063 0.002777269 0.004059086 0.007965574 0.01190258 0.0164805 0.02124153 0.02584997 0.02997009 0.03412073 0.03836294 0.04333761 0.04901422 0.05441616 0.06097784 0.06705121 0.07288042 0.07745834 0.08231093 0.08600378 0.09009339 0.09467131 0.09839468 0.1028505 0.1067875 0.1116401 0.1167674 0.1207654 0.1242446 0.1265031 0.1283648 0.130318 0.1325154 0.1351706 0.1367576 0.1376732 0.1384362 0.1399927 0.141305 0.1428005 0.1429225 0.1416712 0.1405115 0.1385583 0.1368492 0.1345907 0.1322407 0.129555 0.1276933 0.1254654 0.122444 0.1185986 0.1137154 0.1083135 0.1037661 0.09970701 0.09583104 0.09149729 0.0869804 0.08237197 0.07907587 0.07663432 0.07474211 0.07242263 0.07022523 0.06808887 0.06637979 0.06476225 0.06329732 0.06225966 0.06067265 0.05905512 0.0576207 0.05536227 0.05444668 0.05295123 0.0524324 0.05218824 0.05234084 0.05282915 0.05267655 0.05273759 0.05292071 0.05301227 0.05304279 0.05371422 0.05493499 0.0568272 0.05844473 0.05951291 0.05936031 0.05829213 0.0566746 0.05566746 0.05536227 0.05530123 0.05469084 0.0536837 0.05279863 0.05289019 0.05362266 0.05520967 0.05633889 0.05701032 0.05740707 0.05841421 0.06006226 0.06109992 0.06225966 0.063572 0.06460965 0.06424342 0.06387719 0.06378563 0.06460965 0.06601355 0.06787524 0.06976745 0.07056095 0.07193432 0.07324666 0.07449795 0.07544406 0.07632912 0.078496 0.08105963 0.08392847 0.08694988 0.08902521 0.09088689 0.09332845 0.09586156 0.09692974 0.0979674 0.09824208 0.09924922 0.1010804 0.1029116 0.1039797 0.104407 0.1064823 0.1084661 0.1107856 0.1120979 0.1126167 0.1136544 0.1145089 0.1154856 0.1159434 0.1155466 0.1154245 0.1160044 0.115333 0.113868 0.1117927 0.1088323 0.1066044 0.1042849 0.101996 0.09903558 0.09570897 0.09219923 0.0893304 0.08749924 0.08563755 0.08420314 0.08234145 0.07950314 0.07687847 0.07404016 0.0709577 0.06744796 0.06424342 0.0610694 0.05783434 0.05566746 0.05276811 0.05002137 0.04718306 0.04480254 0.04281878 0.04071293 0.03879021 0.03628761 0.03286944 0.02975645 0.02597204 0.02288958 0.02121101 0.02029543 0.0197766 0.01989868 0.02163828 0.02389672 0.02664347 0.02945126 0.03241165 0.03549411 0.03994995 0.04367332 0.04822072 0.05759019 0.06586096
0.05292071 0.05057071 0.04611488 0.03903437 0.02890191 0.02139413 0.02371361 0.02642984 0.02954282 0.03247268 0.03582982 0.039248 0.04202527 0.04492462 0.04812916 0.05063175 0.05334798 0.05627785 0.05832265 0.06042849 0.06277849 0.0654642 0.06729537 0.06833303 0.06909601 0.0700116 0.07169016 0.07416224 0.07721418 0.0800525 0.08151743 0.08255509 0.08310444 0.08395898 0.08514924 0.08655313 0.08667521 0.08453885 0.08231093 0.07913691 0.07611549 0.07352133 0.07138497 0.06934017 0.06677654 0.06460965 0.06259537 0.06052005 0.058872 0.05691876 0.05456876 0.0524324 0.050235 0.04812916 0.04562657 0.04342917 0.04126228 0.03882073 0.0359519 0.03274736 0.02902399 0.02472075 0.02038699 0.0185253 0.0303058 0.03943112 0.0459928 0.05026552 0.05267655 0.05371422 0.05398889 0.05398889 0.05371422 0.05279863 0.05090643 0.04782397 0.04333761 0.03732528 0.02954282 0.019624 0.007385705 0.0009155832 0.004089605 0.007049991 0.01095648 0.01529024 0.02008179 0.02505646 0.02899347 0.032961 0.03772203 0.04260514 0.04806812 0.05386681 0.06024538 0.06662394 0.07196485 0.07620704 0.0797473 0.08350119 0.08691937 0.09155832 0.09552585 0.09970701 0.104468 0.1092291 0.1143563 0.1188427 0.1221693 0.1249466 0.1269304 0.1291278 0.1308979 0.1328511 0.1345297 0.1356894 0.1364524 0.1378868 0.139779 0.1414271 0.1414881 0.1403894 0.1392297 0.1376732 0.1361777 0.1338277 0.1311726 0.1282427 0.1260148 0.1243057 0.1215589 0.1171641 0.1124641 0.1068791 0.102057 0.09805896 0.09363364 0.0897882 0.0853934 0.08115119 0.0781908 0.07550509 0.07388756 0.0720564 0.0697064 0.06778368 0.06579991 0.06439602 0.06259537 0.06070317 0.05878044 0.05664408 0.05456876 0.05307331 0.0513337 0.05005188 0.04934993 0.04916682 0.04919734 0.04992981 0.04983824 0.04971617 0.04986877 0.05005188 0.04968565 0.05066227 0.05194409 0.0535311 0.05481292 0.0554233 0.05548434 0.05401941 0.05215772 0.05090643 0.05060123 0.0510285 0.05160838 0.05209669 0.05249344 0.05282915 0.05310383 0.05331746 0.05350058 0.0536837 0.05380578 0.05466032 0.05621681 0.0579259 0.05932979 0.06079473 0.06134408 0.06158823 0.06100836 0.06186291 0.0624733 0.06415187 0.06644082 0.0686077 0.06988952 0.07074407 0.07223952 0.07294147 0.073796 0.0751999 0.07669535 0.07977782 0.08282976 0.08560703 0.08829274 0.0905817 0.09335897 0.09567845 0.09760118 0.09863883 0.09906611 0.1006226 0.1027895 0.1046206 0.1055057 0.1071232 0.1088934 0.1115791 0.1136239 0.115333 0.116218 0.1176524 0.1187511 0.1198193 0.120033 0.1202161 0.1200024 0.1202466 0.1204602 0.1190258 0.1168895 0.1139596 0.1112128 0.1084051 0.1057193 0.102759 0.09934078 0.09650247 0.09409144 0.09219923 0.09097845 0.08951352 0.08664469 0.08435573 0.08139535 0.07831289 0.07501678 0.07123238 0.06692913 0.06375511 0.06076421 0.05795642 0.05514863 0.05154733 0.04812916 0.04547397 0.0434902 0.041598 0.03979735 0.03711164 0.03372398 0.03009217 0.02661295 0.02328633 0.02136361 0.02108893 0.02011231 0.02090582 0.02191296 0.02423244 0.02652139 0.02945126 0.0326558 0.03601294 0.04080449 0.04339864 0.04867851 0.0577733 0.06619667
0.05301227 0.05078435 0.04654215 0.03973631 0.02997009 0.02450711 0.02646036 0.02923762 0.03195386 0.03531099 0.03872917 0.04217787 0.04513825 0.04767137 0.05075383 0.05310383 0.05548434 0.05789538 0.06006226 0.06229018 0.06454862 0.06732589 0.06921809 0.07077459 0.07178172 0.07297198 0.07452847 0.07724471 0.08032717 0.08286028 0.08380638 0.08411158 0.08466093 0.08569859 0.08682781 0.08795702 0.08746871 0.08627846 0.08337911 0.08051029 0.0775499 0.07474211 0.0723616 0.06998108 0.0678142 0.06564732 0.06360251 0.06131355 0.05923823 0.056522 0.05450772 0.05261552 0.05047916 0.04840383 0.04620643 0.04397851 0.04175059 0.03937008 0.03656229 0.03317463 0.02963438 0.02554477 0.02136361 0.02389672 0.03451749 0.0425441 0.04809864 0.05151682 0.05328694 0.05392785 0.05398889 0.05392785 0.05334798 0.05191357 0.04931942 0.04535189 0.03985839 0.03268632 0.02359153 0.01226882 0 0.001312336 0.003753891 0.006409083 0.009857779 0.01403894 0.01873894 0.0241714 0.02847464 0.0328084 0.03750839 0.04229994 0.04761033 0.05377525 0.06052005 0.06595251 0.07132393 0.07538302 0.07840444 0.08124276 0.08484405 0.08899469 0.0929317 0.09772325 0.1024232 0.1074895 0.1122505 0.1165537 0.1205213 0.1230849 0.1251297 0.1273576 0.1290057 0.1309589 0.1327596 0.1336141 0.1346518 0.1361777 0.1378868 0.139657 0.1403589 0.1398706 0.1386498 0.1370018 0.135079 0.1329122 0.130318 0.1273881 0.1253128 0.1231459 0.1199109 0.1158823 0.1109382 0.1053226 0.1001953 0.0960752 0.09186351 0.08746871 0.08377586 0.07986937 0.07678691 0.07431484 0.07245316 0.0708051 0.06872978 0.06711225 0.06573887 0.06409083 0.06235122 0.05960447 0.05649149 0.05389733 0.05191357 0.05020448 0.04837331 0.04745773 0.04690838 0.04654215 0.04675578 0.04724409 0.04733565 0.04727461 0.04730513 0.0470915 0.04632851 0.0467863 0.04837331 0.04999084 0.05087591 0.05179149 0.0513337 0.04983824 0.05044863 0.05096747 0.05145578 0.05185253 0.05218824 0.05249344 0.05273759 0.05295123 0.05313434 0.05328694 0.05343954 0.05356162 0.0536837 0.05380578 0.05389733 0.05484343 0.0555759 0.05673564 0.05798694 0.05844473 0.058872 0.05945187 0.06079473 0.0632668 0.0657694 0.06753952 0.06866874 0.06973692 0.07010315 0.07098822 0.07169016 0.07288042 0.07510834 0.07794665 0.08136483 0.08484405 0.08752976 0.09045962 0.09323689 0.09604468 0.09790637 0.09918818 0.100409 0.102057 0.1037966 0.1056888 0.1073979 0.1092291 0.1111823 0.1138986 0.1168589 0.1187817 0.1201856 0.1210401 0.1226271 0.1237258 0.1243667 0.1249161 0.1252213 0.1253433 0.1254654 0.12397 0.1215589 0.1188122 0.1153024 0.1123726 0.1092291 0.105994 0.1032168 0.1003784 0.09863883 0.09744857 0.09583104 0.09436611 0.09201612 0.0891778 0.08594275 0.08270769 0.07925899 0.07492523 0.07004212 0.06622718 0.06271745 0.05951291 0.05643044 0.05295123 0.04944149 0.04696942 0.04464994 0.04278826 0.04098761 0.03872917 0.03524996 0.03207593 0.02816944 0.02490386 0.02279802 0.02124153 0.02090582 0.02127205 0.02258439 0.02392724 0.02591101 0.030611 0.03369346 0.03683697 0.03982787 0.04400903 0.04974669 0.058872 0.06586096
0.05313434 0.05108954 0.04715253 0.04071293 0.03143502 0.02719282 0.0293597 0.03244217 0.0347006 0.03778307 0.04120125 0.0447415 0.04825123 0.0511811 0.05386681 0.05600318 0.05820058 0.06033693 0.06225966 0.06387719 0.06619667 0.06888238 0.07132393 0.07336874 0.07486419 0.07669535 0.07892327 0.0809986 0.08334859 0.08484405 0.08517976 0.08557651 0.08606482 0.08664469 0.08774339 0.08835378 0.08844534 0.08734664 0.08490509 0.08231093 0.07907587 0.07626808 0.07388756 0.07193432 0.06976745 0.06738693 0.06522004 0.06314472 0.06018434 0.05759019 0.05514863 0.05328694 0.05108954 0.04892267 0.04666422 0.04385643 0.04135384 0.03863761 0.03622658 0.03341879 0.03021425 0.02655191 0.02246231 0.02813892 0.03778307 0.0448941 0.04962461 0.05237136 0.05362266 0.05398889 0.05398889 0.05374473 0.05279863 0.05078435 0.04745773 0.04260514 0.0361045 0.02780321 0.0174266 0.004699994 0 0.001312336 0.003418177 0.006225966 0.009766221 0.01388635 0.01861686 0.02288958 0.02783373 0.03259476 0.03759995 0.04223891 0.0481902 0.05380578 0.05994018 0.06567784 0.07053043 0.07477263 0.07788561 0.0803882 0.08353171 0.08737716 0.09116157 0.09577 0.1006226 0.1058109 0.1105109 0.1146005 0.1184765 0.1212843 0.123207 0.1249161 0.1268998 0.1287615 0.1305622 0.1313252 0.1326375 0.1341024 0.1357505 0.1377342 0.1391381 0.1389855 0.138192 0.1363609 0.1339803 0.1317524 0.1295245 0.1268693 0.1249771 0.1223524 0.1184154 0.1142953 0.1093512 0.1042239 0.09888299 0.09433559 0.08994079 0.08582067 0.08234145 0.07886223 0.07608496 0.07333822 0.07101874 0.06872978 0.06711225 0.06586096 0.06503693 0.0634194 0.06085576 0.05823109 0.05417201 0.05105902 0.04904474 0.04742721 0.04736617 0.04733565 0.04736617 0.04745773 0.04761033 0.04782397 0.04806812 0.04834279 0.04864799 0.0489837 0.04931942 0.04968565 0.05005188 0.0503876 0.05072331 0.05105902 0.05136422 0.05163889 0.05188305 0.0521272 0.05231032 0.05252396 0.05267655 0.05282915 0.05295123 0.05307331 0.05316487 0.05325642 0.05334798 0.05347006 0.05356162 0.05365318 0.05377525 0.05386681 0.05392785 0.05395837 0.05398889 0.05524019 0.05636941 0.05749863 0.05936031 0.0620155 0.06451809 0.06613563 0.06729537 0.06769212 0.06769212 0.06802783 0.0690655 0.07068302 0.07349081 0.07657328 0.07947262 0.08356223 0.08701093 0.09045962 0.09329793 0.09604468 0.09787585 0.1001343 0.1020265 0.103583 0.1053836 0.1070317 0.1092291 0.1116096 0.1142038 0.11692 0.1195141 0.1213453 0.123207 0.1245498 0.1253739 0.1274492 0.1283953 0.1288226 0.1294329 0.1303791 0.1300128 0.1283953 0.1257096 0.1229323 0.1194531 0.1158823 0.1127999 0.1096563 0.1067265 0.1046817 0.1031557 0.1018434 0.1001953 0.09818104 0.09616676 0.09342001 0.08957456 0.08615638 0.08264665 0.07748886 0.07251419 0.06784472 0.06384667 0.06045901 0.05728499 0.05414149 0.05115058 0.04870903 0.04663371 0.04507721 0.04306293 0.04028566 0.0370506 0.03347982 0.03036684 0.02728438 0.02462919 0.02288958 0.02133309 0.02118049 0.02310322 0.02499542 0.02710126 0.03082464 0.03329671 0.03744736 0.04071293 0.04532137 0.04989929 0.0590246 0.06665446
0.05328694 0.05145578 0.04785448 0.04190319 0.03320515 0.02997009 0.03235061 0.0350058 0.03772203 0.04056033 0.04361228 0.04761033 0.05130318 0.05401941 0.05655252 0.05914668 0.0613746 0.06348044 0.06488433 0.06653238 0.06845511 0.07083562 0.07376549 0.07623756 0.07822133 0.0806934 0.08279924 0.08423366 0.08545443 0.08643106 0.08621742 0.08649209 0.08673625 0.0869804 0.08786547 0.08862846 0.08926936 0.08856742 0.08676677 0.08408106 0.08096807 0.07791613 0.07544406 0.07364341 0.07147653 0.06967589 0.06778368 0.06522004 0.06235122 0.05987914 0.05688824 0.05408045 0.0524324 0.04962461 0.04660319 0.04345968 0.04022462 0.03750839 0.03521943 0.03271684 0.02990905 0.02704022 0.02337789 0.0314045 0.04028566 0.04666422 0.05072331 0.05295123 0.05383629 0.05398889 0.05395837 0.05347006 0.0521272 0.04953305 0.04544345 0.03973631 0.03225905 0.02285906 0.01129219 0 0 0.0008545443 0.003051944 0.006164927 0.01016297 0.0142831 0.01889153 0.02295062 0.02697919 0.03134347 0.03647073 0.04245254 0.04767137 0.05325642 0.05911615 0.06457914 0.06937069 0.07364341 0.07706159 0.07968626 0.08252457 0.08603431 0.09000183 0.09424403 0.09918818 0.1039492 0.1080388 0.1125862 0.1162485 0.118507 0.1210706 0.1226271 0.1244278 0.1262894 0.1281817 0.1293109 0.1305927 0.1317219 0.1331563 0.1352622 0.1369407 0.1377037 0.1372459 0.1352011 0.1327901 0.1307758 0.128731 0.1272355 0.1250381 0.1214674 0.1180492 0.1132882 0.108344 0.1030947 0.09848624 0.09381676 0.08929989 0.08487456 0.08148691 0.07846548 0.07544406 0.07263627 0.0697064 0.06692913 0.06537265 0.06433498 0.06329732 0.06183239 0.05951291 0.0566746 0.05316487 0.05218824 0.05215772 0.05215772 0.0521272 0.0521272 0.0521272 0.05215772 0.05215772 0.05218824 0.05221877 0.0522798 0.05231032 0.05237136 0.0524324 0.05249344 0.05255448 0.052585 0.05264603 0.05270708 0.05276811 0.05282915 0.05289019 0.05292071 0.05298175 0.05301227 0.05307331 0.05310383 0.05313434 0.05316487 0.05319539 0.0532259 0.05328694 0.05331746 0.0533785 0.05347006 0.05356162 0.05365318 0.05374473 0.05383629 0.05389733 0.05395837 0.05398889 0.0546298 0.05734603 0.0601233 0.06244278 0.06372459 0.06460965 0.06470121 0.0646707 0.06503693 0.06659342 0.06909601 0.07178172 0.07501678 0.07837392 0.08145639 0.08542392 0.089483 0.09268754 0.09561741 0.09818104 0.1006226 0.1034914 0.1054447 0.1071538 0.1089544 0.1117012 0.1146921 0.1177745 0.1204602 0.1225966 0.1247024 0.1266862 0.1276628 0.1288531 0.1299823 0.1317524 0.1324544 0.1330037 0.1337362 0.1332784 0.1315693 0.1289752 0.1261063 0.1228102 0.1197278 0.11692 0.1140206 0.111457 0.1088628 0.1069401 0.1055973 0.1038882 0.1019654 0.09943233 0.09641092 0.09290118 0.08865897 0.08432522 0.07968626 0.07431484 0.06943173 0.06512849 0.06155771 0.05832265 0.05530123 0.05276811 0.05084539 0.04925838 0.04721358 0.04492462 0.04156748 0.03851553 0.03503632 0.0318623 0.02923762 0.02682659 0.02426296 0.02243179 0.0218214 0.02371361 0.02652139 0.02835256 0.03149606 0.0339071 0.03851553 0.04275773 0.04571812 0.05014344 0.05884148 0.06473173
0.05343954 0.05188305 0.04864799 0.04324605 0.03524996 0.03289996 0.03564671 0.03851553 0.04086553 0.04376488 0.04684734 0.05075383 0.05426357 0.05673564 0.05948239 0.06207654 0.06433498 0.06659342 0.06836355 0.06988952 0.0715986 0.07376549 0.07678691 0.07947262 0.08188366 0.08438625 0.08640054 0.08737716 0.08746871 0.08810963 0.08786547 0.08786547 0.08817066 0.08905573 0.08936092 0.09006287 0.09033754 0.09024598 0.08844534 0.08588171 0.08267716 0.07944211 0.07690899 0.07492523 0.07324666 0.07132393 0.06952329 0.06757005 0.06430446 0.06143563 0.05841421 0.05545382 0.05313434 0.05047916 0.04736617 0.04355124 0.04001099 0.03686748 0.03430385 0.03198437 0.0295123 0.02707074 0.0238662 0.03384606 0.04214735 0.04791552 0.0514863 0.05328694 0.05392785 0.05398889 0.05386681 0.05313434 0.05136422 0.0481902 0.04342917 0.036898 0.02850516 0.01812855 0.005493499 0 0 0 0.002136361 0.005707135 0.01001038 0.0144357 0.0183727 0.02206556 0.02588049 0.03033632 0.0350058 0.0412928 0.04690838 0.05203564 0.05707135 0.06244278 0.067509 0.072209 0.07590185 0.07870964 0.08145639 0.08463041 0.08820118 0.09244338 0.09705182 0.1013551 0.1057804 0.1097479 0.1135934 0.1164012 0.1182018 0.1196362 0.1212537 0.1239394 0.1256485 0.1271745 0.1283037 0.1292193 0.1303791 0.1322407 0.1341329 0.1353232 0.1352927 0.1335531 0.1316609 0.1294635 0.1278154 0.1265031 0.124031 0.120918 0.1165843 0.1117317 0.1067875 0.1019044 0.09778429 0.09348105 0.08881158 0.08463041 0.08115119 0.07806873 0.07507782 0.07193432 0.06885186 0.06607459 0.06354147 0.06207654 0.0610694 0.06003174 0.05835317 0.05569798 0.05377525 0.05377525 0.05380578 0.05380578 0.05380578 0.05380578 0.05380578 0.05380578 0.05380578 0.05377525 0.05377525 0.05377525 0.05374473 0.05374473 0.05371422 0.05371422 0.0536837 0.05365318 0.05362266 0.05359214 0.05356162 0.0535311 0.05350058 0.05347006 0.05343954 0.05340902 0.0533785 0.05334798 0.05331746 0.05328694 0.05325642 0.05319539 0.05316487 0.05316487 0.05316487 0.05319539 0.0532259 0.05331746 0.05340902 0.0535311 0.05362266 0.05374473 0.05383629 0.05389733 0.05411097 0.05731551 0.05939083 0.06048953 0.0613746 0.06174083 0.0620155 0.06290057 0.06543368 0.06830251 0.07141549 0.074559 0.07767197 0.08115119 0.08481353 0.08878105 0.09250443 0.09537325 0.09815052 0.1011109 0.1043154 0.1069706 0.1089544 0.111396 0.1146005 0.1181102 0.1213453 0.1241226 0.1261063 0.1277544 0.129555 0.1312336 0.1317219 0.1330953 0.1344381 0.1352927 0.1362388 0.1367271 0.1361167 0.1337667 0.1316914 0.1289752 0.1261369 0.1236648 0.1213148 0.1187817 0.116157 0.113746 0.1115791 0.109809 0.1077641 0.1053836 0.1025758 0.09873039 0.09454922 0.09039858 0.08545443 0.08075444 0.0759934 0.07120185 0.06708173 0.06366356 0.0601233 0.05707135 0.05472136 0.05298175 0.05142526 0.04953305 0.04687786 0.04355124 0.04013307 0.03662333 0.03378502 0.0314045 0.02847464 0.02578893 0.02340841 0.02304218 0.02423244 0.02676555 0.02917659 0.03210645 0.03424281 0.03860709 0.04208631 0.04657267 0.05157785 0.05874992 0.06528109
0.05359214 0.0522798 0.04947201 0.04464994 0.03744736 0.03656229 0.03943112 0.04242202 0.04483306 0.0470915 0.05084539 0.05435512 0.05771226 0.0599707 0.0620155 0.06482329 0.06741744 0.06992004 0.07193432 0.07352133 0.07516938 0.07742782 0.0803882 0.08328755 0.08594275 0.08841482 0.09036806 0.09045962 0.09055118 0.0904291 0.08997131 0.09021547 0.09064274 0.09070378 0.0915278 0.0919856 0.09232131 0.09177196 0.09012391 0.08756027 0.08426417 0.0806934 0.07791613 0.07584081 0.07400964 0.07242263 0.07104926 0.06839406 0.0654642 0.06268694 0.05954343 0.05725447 0.05475188 0.05157785 0.04849539 0.04425319 0.0401941 0.03662333 0.03409021 0.03180126 0.02945126 0.0273149 0.02502594 0.03555515 0.04342917 0.04880059 0.05200513 0.0535311 0.05395837 0.05398889 0.05374473 0.05276811 0.05060123 0.04690838 0.04153696 0.03430385 0.0251175 0.01388635 0.0003357138 0 0 0 0.001464933 0.005157785 0.009247391 0.01385583 0.01754868 0.02093634 0.02459867 0.02865775 0.03354087 0.03930904 0.04480254 0.05005188 0.05517915 0.06055057 0.0657694 0.07040835 0.07434536 0.07718366 0.07993042 0.08298236 0.08667521 0.09067326 0.09506806 0.09940182 0.1033693 0.1073369 0.1112739 0.1146005 0.1165843 0.117683 0.1197278 0.12162 0.1234511 0.1248245 0.1257096 0.1265031 0.1274187 0.1290667 0.1309284 0.1321797 0.1325154 0.1315388 0.1300433 0.1282122 0.1269304 0.125557 0.1230544 0.120033 0.1156382 0.1102057 0.1052921 0.1007752 0.09668559 0.09290118 0.0885369 0.08408106 0.08063236 0.07758042 0.07449795 0.07138497 0.06833303 0.06482329 0.0623207 0.06048953 0.05923823 0.05795642 0.05664408 0.05404993 0.05398889 0.05398889 0.05398889 0.05398889 0.05398889 0.05398889 0.05398889 0.05398889 0.05398889 0.05398889 0.05398889 0.05398889 0.05398889 0.05398889 0.05398889 0.05398889 0.05398889 0.05398889 0.05395837 0.05392785 0.05392785 0.05386681 0.05383629 0.05377525 0.05374473 0.0536837 0.05359214 0.0535311 0.05343954 0.0533785 0.05328694 0.05316487 0.05307331 0.05298175 0.05289019 0.05282915 0.05279863 0.05282915 0.05285967 0.05295123 0.05304279 0.05316487 0.05331746 0.05343954 0.05359214 0.05380578 0.05603369 0.05746811 0.05850577 0.05920772 0.0601233 0.06186291 0.06464018 0.06793627 0.07135445 0.07385705 0.07718366 0.08051029 0.08450833 0.08859794 0.09189404 0.09479338 0.09790637 0.1014161 0.10517 0.1080999 0.1108771 0.1138986 0.1174998 0.1213148 0.124733 0.1275713 0.1293719 0.1311726 0.1328511 0.1337972 0.1344992 0.1352316 0.1371849 0.1381005 0.1391686 0.139657 0.1385583 0.1366966 0.1343771 0.131905 0.1295245 0.1276018 0.125557 0.1232375 0.1206739 0.1179271 0.1157602 0.1133492 0.111396 0.1089239 0.1054447 0.1011719 0.09628884 0.09192456 0.08719404 0.08209729 0.07803821 0.07394861 0.0701642 0.06659342 0.06293109 0.05945187 0.05679668 0.05499603 0.05325642 0.05130318 0.04883111 0.04550449 0.04196423 0.03854606 0.03534151 0.03302203 0.03027529 0.02713178 0.02462919 0.02404932 0.02584997 0.0273149 0.02972594 0.03262528 0.0351584 0.03915644 0.04263566 0.04730513 0.05200513 0.0587194 0.06692913
0.05371422 0.05267655 0.05029604 0.04608436 0.03970579 0.03961423 0.04263566 0.04544345 0.04773241 0.05105902 0.0543246 0.05798694 0.06113044 0.06378563 0.06552524 0.06805836 0.0708051 0.07367393 0.07559665 0.07727522 0.07922847 0.08148691 0.08447781 0.08762132 0.09039858 0.09256546 0.0935726 0.09393884 0.09329793 0.09290118 0.09250443 0.09226027 0.09265702 0.09296222 0.09317585 0.09342001 0.09393884 0.09345053 0.09171092 0.0893304 0.08603431 0.08224989 0.07913691 0.07684796 0.07492523 0.07330769 0.07150705 0.06976745 0.06695965 0.06393823 0.06079473 0.05783434 0.05517915 0.05246292 0.04840383 0.04419215 0.03985839 0.03653177 0.0337545 0.03158762 0.0293597 0.02752854 0.02627724 0.03662333 0.04428371 0.04938046 0.05231032 0.05365318 0.05398889 0.05398889 0.05365318 0.0524324 0.04992981 0.04580968 0.03991943 0.03210645 0.02230971 0.01037661 0 0 0 0 0.000274675 0.003906488 0.008087652 0.01214674 0.01635842 0.01944088 0.0227675 0.02664347 0.03137399 0.03695904 0.04226942 0.04809864 0.05328694 0.05868889 0.06409083 0.06888238 0.07291094 0.07584081 0.07870964 0.08191418 0.08530184 0.08881158 0.0929317 0.09677715 0.10047 0.1048343 0.1083745 0.1116096 0.1139291 0.115455 0.1171641 0.1191174 0.1213758 0.1227187 0.1233291 0.1241836 0.1248245 0.1262284 0.1278765 0.1292193 0.1296161 0.1289752 0.1276628 0.1261979 0.1251907 0.1240615 0.1220778 0.1186291 0.113868 0.1088323 0.1042544 0.09982909 0.09595312 0.09226027 0.08804858 0.08392847 0.08032717 0.07715315 0.07397912 0.0708051 0.06753952 0.06415187 0.06052005 0.05826161 0.05710188 0.05624733 0.05444668 0.05383629 0.05377525 0.05374473 0.0536837 0.05365318 0.05365318 0.05362266 0.05365318 0.05365318 0.05371422 0.05374473 0.05377525 0.05383629 0.05389733 0.05392785 0.05395837 0.05398889 0.05398889 0.05398889 0.05398889 0.05398889 0.05398889 0.05398889 0.05395837 0.05395837 0.05389733 0.05383629 0.05377525 0.0536837 0.05356162 0.05343954 0.05331746 0.05313434 0.05295123 0.05276811 0.052585 0.05240188 0.05224928 0.0521272 0.05206617 0.05203564 0.05203564 0.0521272 0.05221877 0.05237136 0.05255448 0.05273759 0.05292071 0.05429409 0.05569798 0.05704083 0.05862784 0.06152719 0.06479277 0.06784472 0.07129341 0.07471159 0.07706159 0.08078496 0.08481353 0.08850638 0.09174144 0.09470183 0.0979674 0.1012025 0.1053226 0.1088323 0.1120674 0.1157602 0.1198804 0.12397 0.1278154 0.1306842 0.1326985 0.1343466 0.1355979 0.136605 0.1372459 0.1378258 0.139016 0.1404199 0.1411524 0.1417323 0.1409693 0.1391076 0.1370323 0.1349875 0.1329732 0.1313557 0.1297687 0.1276323 0.1253433 0.1226882 0.1200024 0.1174998 0.1149057 0.111518 0.1074589 0.1031252 0.09787585 0.0929317 0.08798755 0.08386742 0.07999145 0.07672587 0.07324666 0.06973692 0.06604407 0.06241225 0.05951291 0.05740707 0.05554538 0.0535311 0.05084539 0.04727461 0.04403955 0.04028566 0.03763047 0.03524996 0.03232009 0.02972594 0.02664347 0.02575841 0.02548373 0.028261 0.03027529 0.03341879 0.0361045 0.0395532 0.04443631 0.04858695 0.05255448 0.058872 0.06717329
0.05383629 0.05304279 0.05108954 0.04748825 0.04193371 0.04303241 0.04562657 0.04843435 0.05087591 0.05408045 0.05795642 0.06219862 0.06506745 0.06717329 0.06949276 0.07162913 0.07449795 0.07706159 0.07932003 0.08118171 0.08334859 0.08615638 0.08905573 0.09219923 0.09467131 0.09650247 0.09732649 0.09732649 0.09677715 0.09644143 0.09558689 0.09522066 0.09577 0.09534273 0.09509858 0.09528169 0.0951291 0.09476286 0.09335897 0.09116157 0.08807911 0.08450833 0.08115119 0.0786486 0.07632912 0.07407068 0.07254471 0.07053043 0.06818043 0.06555576 0.06241225 0.05884148 0.05627785 0.05249344 0.04840383 0.04437527 0.03982787 0.03628761 0.03384606 0.03174022 0.02963438 0.02777269 0.02673503 0.03711164 0.04471098 0.04968565 0.05249344 0.05371422 0.05398889 0.05395837 0.0535311 0.05215772 0.04941098 0.04498566 0.03872917 0.03048892 0.02023439 0.007812977 0 0 0 0 0 0.002777269 0.00656168 0.01065128 0.01483245 0.01809803 0.02172984 0.02536166 0.02957334 0.03503632 0.04025514 0.04608436 0.05191357 0.05719343 0.0624733 0.06729537 0.07141549 0.07486419 0.07788561 0.08118171 0.08426417 0.08765183 0.09082586 0.09461027 0.09863883 0.1023927 0.1058109 0.1093206 0.1114265 0.112983 0.1149973 0.1166758 0.1186596 0.1201856 0.1211927 0.1220778 0.1229323 0.1241226 0.1254959 0.1268388 0.1270219 0.1259843 0.1246719 0.1235732 0.1226882 0.121681 0.1196972 0.1160349 0.1116096 0.1073674 0.1030641 0.09927974 0.09561741 0.0916804 0.08774339 0.08359275 0.08002198 0.0766038 0.07306354 0.06976745 0.06637979 0.06302264 0.05951291 0.05716291 0.05575902 0.05438564 0.05374473 0.05255448 0.0522798 0.05203564 0.05182201 0.05166941 0.05157785 0.05154733 0.05160838 0.05169993 0.05188305 0.05209669 0.05234084 0.05261552 0.05289019 0.05313434 0.0533785 0.05359214 0.05374473 0.05386681 0.05392785 0.05398889 0.05398889 0.05398889 0.05398889 0.05398889 0.05398889 0.05392785 0.05386681 0.05377525 0.0536837 0.0535311 0.05334798 0.05310383 0.05285967 0.05255448 0.05221877 0.05188305 0.05154733 0.05124214 0.05096747 0.05072331 0.05054019 0.05044863 0.0503876 0.05041812 0.05050968 0.05066227 0.05087591 0.05191357 0.05359214 0.05563694 0.05810902 0.06152719 0.06500641 0.06824147 0.07178172 0.07446744 0.07782458 0.08142587 0.08490509 0.08911677 0.09284014 0.09500702 0.09818104 0.1014466 0.1047732 0.1083745 0.1122505 0.1165843 0.1212537 0.1256485 0.1298602 0.1332479 0.1353537 0.1366966 0.1378563 0.1389855 0.1398401 0.1406336 0.1416712 0.1424037 0.1432277 0.1440212 0.1435024 0.1424342 0.1405725 0.1382225 0.1363914 0.1346823 0.1333089 0.1314777 0.1293109 0.1270829 0.1243972 0.1214369 0.1179882 0.1143869 0.1096563 0.1044986 0.09934078 0.09430507 0.08960508 0.08569859 0.08279924 0.07962522 0.07623756 0.07269731 0.06930965 0.06583043 0.06287005 0.06052005 0.05859733 0.05594213 0.05340902 0.05026552 0.04608436 0.04217787 0.03912592 0.03674541 0.03433437 0.0317097 0.02816944 0.02682659 0.02652139 0.02942074 0.03177074 0.03308307 0.03634866 0.04114021 0.04468046 0.04861747 0.05374473 0.05878044 0.06775316
0.05392785 0.05334798 0.05179149 0.04880059 0.04519929 0.04672527 0.04834279 0.05121162 0.05441616 0.05826161 0.06259537 0.06622718 0.06934017 0.0712629 0.07306354 0.0756577 0.07834341 0.08047976 0.0825856 0.08469145 0.08749924 0.0907343 0.09409144 0.09671611 0.0985778 0.1000732 0.1008362 0.1014161 0.1010499 0.1002258 0.1002258 0.09940182 0.09873039 0.09805896 0.09778429 0.09720442 0.09696026 0.09634987 0.09506806 0.09299274 0.08997131 0.08667521 0.08316547 0.08020509 0.07779405 0.07562718 0.07352133 0.07117134 0.06900445 0.06610511 0.06317525 0.06015382 0.05646097 0.05249344 0.04825123 0.04419215 0.0403467 0.03759995 0.03528047 0.03311359 0.03094671 0.02896295 0.02688763 0.0370506 0.0447415 0.04974669 0.05255448 0.05374473 0.05398889 0.05395837 0.05350058 0.05203564 0.0491363 0.04452787 0.03802722 0.02957334 0.01904413 0.006348044 0 0 0 0 0 0.002319477 0.005737655 0.00979674 0.01370323 0.01739608 0.02124153 0.02490386 0.02905451 0.03320515 0.03894281 0.04480254 0.05078435 0.05603369 0.06103888 0.06589147 0.06982848 0.0734603 0.07687847 0.0803882 0.08386742 0.08673625 0.08994079 0.09326741 0.09671611 0.1007447 0.1039492 0.1071538 0.1096563 0.1112434 0.1130745 0.1146005 0.1166453 0.1181713 0.1191784 0.1205213 0.1214674 0.1226576 0.1233901 0.1243362 0.1246719 0.1236648 0.1221998 0.1214674 0.120796 0.1194531 0.1174388 0.1135018 0.1095953 0.1058719 0.101996 0.09815052 0.09421352 0.09045962 0.08643106 0.08255509 0.07928951 0.07550509 0.07184276 0.06827199 0.06515901 0.06183239 0.05868889 0.05673564 0.05530123 0.05438564 0.05362266 0.052585 0.05060123 0.04806812 0.04712202 0.04669474 0.04645059 0.04638955 0.04651163 0.04681682 0.04727461 0.047885 0.04858695 0.04934993 0.05011292 0.05090643 0.05160838 0.05224928 0.05276811 0.05319539 0.0535311 0.05374473 0.05389733 0.05395837 0.05398889 0.05398889 0.05398889 0.05398889 0.05395837 0.05386681 0.05374473 0.05359214 0.05334798 0.05307331 0.05273759 0.05231032 0.05182201 0.05127266 0.05072331 0.05011292 0.04953305 0.0489837 0.04849539 0.0480376 0.04767137 0.04742721 0.04724409 0.04718306 0.04867851 0.05069279 0.05298175 0.05527071 0.05820058 0.06143563 0.06460965 0.06814991 0.07129341 0.07446744 0.07800769 0.0817921 0.08582067 0.08923884 0.09259598 0.09570897 0.09812 0.1011109 0.1041628 0.1078557 0.1119758 0.1166453 0.1215589 0.1262894 0.1309894 0.1342855 0.1368186 0.138131 0.138955 0.1402979 0.1419459 0.1425258 0.1440212 0.1446927 0.1452115 0.146066 0.1465238 0.146066 0.1442654 0.1421596 0.1398706 0.1379479 0.1364829 0.1347433 0.1328511 0.131142 0.1282122 0.1247635 0.1209485 0.1161875 0.1114265 0.1066044 0.1015687 0.09677715 0.09226027 0.08829274 0.08542392 0.08215833 0.07870964 0.07529146 0.07227004 0.06952329 0.06689861 0.06448758 0.06161875 0.05911615 0.05646097 0.0532259 0.04931942 0.04504669 0.04141488 0.03869865 0.03656229 0.03338827 0.03012269 0.02801685 0.02774217 0.02997009 0.03219801 0.03418177 0.03662333 0.04077397 0.04507721 0.04977721 0.0535311 0.05810902 0.06717329
0.05395837 0.05359214 0.05240188 0.04999084 0.04858695 0.05002137 0.05176097 0.05438564 0.05768174 0.06140511 0.06589147 0.06964536 0.07242263 0.07468107 0.07632912 0.07910639 0.08185314 0.08441678 0.08630898 0.08865897 0.09180248 0.09522066 0.09882195 0.1014161 0.1030031 0.1045901 0.1052005 0.1064213 0.1063602 0.1055057 0.1050174 0.1036745 0.1031252 0.1018129 0.1008973 0.09985961 0.09909663 0.09839468 0.09644143 0.09442715 0.09146676 0.08820118 0.08484405 0.08167002 0.07916743 0.07669535 0.0744064 0.07199536 0.06955381 0.06702069 0.06363303 0.06113044 0.05771226 0.05398889 0.04968565 0.04565708 0.04229994 0.03921748 0.03753891 0.03540255 0.03335775 0.03134347 0.02926814 0.03640969 0.04437527 0.04959409 0.05249344 0.05371422 0.05398889 0.05395837 0.05350058 0.05200513 0.04910578 0.04446682 0.03793567 0.02942074 0.01883049 0.006103888 0 0 0 0 0 0.002685711 0.005737655 0.009461027 0.01315388 0.01718245 0.02078374 0.02429347 0.02768113 0.0318623 0.03747787 0.04300189 0.0489837 0.05459928 0.05929928 0.06384667 0.06784472 0.07172069 0.07544406 0.07907587 0.08246353 0.08591223 0.0891778 0.09222975 0.09598364 0.09940182 0.1029116 0.1061771 0.1085576 0.1102667 0.1121895 0.1132576 0.114631 0.1163096 0.1174083 0.1185375 0.1196362 0.1205823 0.1212232 0.1218641 0.1220472 0.1208875 0.1201856 0.1196667 0.1197278 0.1181102 0.1159434 0.1127999 0.1087408 0.1049564 0.1015687 0.09787585 0.09345053 0.08893365 0.08505768 0.08136483 0.07812977 0.07465056 0.07086614 0.06772264 0.0643655 0.06113044 0.05813953 0.05670512 0.05612525 0.05487395 0.05414149 0.05246292 0.04996032 0.04773241 0.04532137 0.04321553 0.04123177 0.039248 0.03851553 0.03836294 0.03885125 0.04010255 0.041598 0.04318501 0.04486358 0.04651163 0.04809864 0.04950253 0.05072331 0.05176097 0.05255448 0.05313434 0.05356162 0.05380578 0.05392785 0.05398889 0.05398889 0.05398889 0.05398889 0.05392785 0.05380578 0.05365318 0.0533785 0.05304279 0.052585 0.05203564 0.05136422 0.05060123 0.04971617 0.04880059 0.04779344 0.04681682 0.0458402 0.0448941 0.04400903 0.04324605 0.04297137 0.04565708 0.04831228 0.05032656 0.05289019 0.0554233 0.05804798 0.06094732 0.06351095 0.06717329 0.07049991 0.07382653 0.07742782 0.08105963 0.08548495 0.08884209 0.09229079 0.09543429 0.0979674 0.100409 0.103583 0.1070317 0.1114875 0.1164622 0.1214674 0.1266557 0.131081 0.1350485 0.1373375 0.1384972 0.1400232 0.1415492 0.142831 0.1452115 0.1463712 0.1468596 0.1478362 0.149179 0.1499115 0.1496979 0.1480803 0.1457303 0.142892 0.1411219 0.1393518 0.1377342 0.1360862 0.134194 0.1317829 0.1277849 0.1237869 0.1189953 0.1136849 0.1097174 0.1048648 0.1003174 0.09567845 0.09177196 0.08859794 0.08469145 0.08136483 0.07788561 0.07489471 0.07263627 0.0701642 0.06775316 0.06457914 0.06183239 0.05896356 0.05563694 0.05197461 0.04712202 0.04382592 0.04120125 0.03802722 0.03503632 0.03198437 0.02939022 0.02969542 0.03161814 0.03241165 0.03564671 0.03708112 0.04123177 0.0447415 0.05096747 0.05347006 0.05786486 0.067509
0.05398889 0.05377525 0.05292071 0.05099799 0.05151682 0.05231032 0.05493499 0.05768174 0.06116096 0.06503693 0.06866874 0.07263627 0.07465056 0.07700055 0.07925899 0.0819447 0.0852408 0.08789599 0.09030703 0.09290118 0.0959226 0.09949338 0.1031252 0.1057193 0.1074895 0.1089849 0.10987 0.1111518 0.1108466 0.1104804 0.10987 0.1085271 0.1073369 0.1061466 0.1045291 0.1039187 0.1023317 0.1003479 0.09830312 0.09570897 0.09299274 0.08936092 0.08600378 0.0830434 0.07999145 0.07794665 0.07532198 0.07312458 0.06998108 0.06726485 0.06470121 0.06210706 0.05954343 0.05585058 0.0514863 0.04791552 0.04434475 0.04233047 0.04043826 0.03839346 0.03640969 0.03409021 0.03216749 0.0351584 0.0436428 0.04919734 0.05231032 0.0536837 0.05398889 0.05398889 0.05356162 0.05215772 0.04934993 0.04483306 0.03842398 0.03003113 0.019624 0.00708051 0 0 0 0 0.0006103888 0.003082464 0.00601233 0.009033754 0.01330648 0.01696881 0.02044803 0.02368309 0.02719282 0.03112983 0.0357993 0.04175059 0.04736617 0.0524324 0.05749863 0.06180187 0.06592199 0.06976745 0.0731551 0.07693951 0.08026613 0.08435573 0.08792651 0.09140573 0.09515962 0.09869987 0.1020875 0.1049869 0.1079473 0.109931 0.1109992 0.1123421 0.113105 0.1143869 0.1157297 0.11692 0.1177745 0.1179882 0.1186901 0.1191784 0.1193005 0.1187511 0.1185986 0.118568 0.1179576 0.1171947 0.1150888 0.1115486 0.108344 0.1052005 0.1012635 0.09696026 0.09222975 0.08752976 0.08368431 0.08032717 0.07697003 0.07394861 0.07056095 0.06714277 0.06451809 0.06113044 0.05859733 0.05798694 0.05701032 0.05612525 0.05499603 0.05331746 0.05044863 0.04773241 0.04541293 0.04367332 0.04184216 0.0401941 0.03973631 0.0390954 0.0390954 0.03930904 0.03872917 0.03848501 0.03787462 0.0395532 0.0423915 0.04501618 0.04730513 0.04922786 0.05081487 0.05200513 0.05285967 0.05340902 0.05374473 0.05392785 0.05398889 0.05398889 0.05398889 0.05395837 0.05386681 0.0536837 0.05340902 0.05301227 0.05246292 0.05176097 0.05087591 0.04980773 0.04858695 0.04724409 0.04574864 0.04419215 0.04257462 0.04092657 0.03933956 0.03903437 0.04217787 0.04541293 0.04794604 0.05063175 0.05298175 0.05539279 0.05786486 0.06024538 0.06265641 0.06622718 0.06973692 0.07333822 0.07666484 0.0809986 0.08490509 0.08856742 0.09192456 0.0948239 0.09750962 0.1000732 0.1031252 0.1066654 0.1107856 0.1163706 0.1218946 0.1270219 0.1314472 0.1351706 0.1378563 0.1390466 0.1407557 0.1424953 0.1443264 0.1464933 0.1476225 0.149118 0.1501862 0.151529 0.1528414 0.1525667 0.1515901 0.1488738 0.1463102 0.1441128 0.1425258 0.1409083 0.1391076 0.137429 0.1342245 0.1304401 0.1257096 0.1210401 0.1165537 0.11222 0.1078557 0.1029116 0.0985778 0.09476286 0.09097845 0.08768235 0.08380638 0.08051029 0.07751938 0.07526094 0.07312458 0.07013367 0.06726485 0.06393823 0.06125252 0.05810902 0.05395837 0.04938046 0.04547397 0.0425441 0.03982787 0.03650125 0.03283892 0.03082464 0.03018373 0.03256425 0.03402918 0.03494476 0.03824086 0.0414454 0.04565708 0.04861747 0.0536837 0.0577733 0.06726485
0.05398889 0.05389733 0.05328694 0.05298175 0.05420253 0.05530123 0.05774278 0.06113044 0.06390771 0.06811939 0.07181224 0.07419276 0.07648171 0.07861808 0.08151743 0.08490509 0.0891778 0.09189404 0.09485442 0.09741805 0.1003479 0.1041628 0.1069706 0.1095953 0.1117622 0.1134102 0.1149057 0.1159128 0.1162791 0.1152109 0.1141427 0.1128304 0.1117317 0.1104499 0.1085271 0.1069706 0.1044986 0.1023927 0.1001953 0.09723493 0.09451871 0.09097845 0.08765183 0.08456937 0.08157846 0.0788012 0.07623756 0.07339925 0.0709577 0.06827199 0.0654642 0.06335836 0.06103888 0.05771226 0.05389733 0.05032656 0.04706098 0.04519929 0.04321553 0.04162852 0.0395532 0.03756943 0.0350058 0.03323567 0.0423915 0.04849539 0.05197461 0.05356162 0.05398889 0.05398889 0.05365318 0.05240188 0.04980773 0.04556552 0.03946164 0.03143502 0.02139413 0.009216871 0 0 0 0 0.001251297 0.003601294 0.006500641 0.009766221 0.01358115 0.01702985 0.01983764 0.02237075 0.02572789 0.03000061 0.0347006 0.04016358 0.04593176 0.05087591 0.05578954 0.0601233 0.06399927 0.06741744 0.07089666 0.07486419 0.07861808 0.08298236 0.08694988 0.09045962 0.09457975 0.09763169 0.1015992 0.1046206 0.1069706 0.1094732 0.1106635 0.1119453 0.1124336 0.1135323 0.1144784 0.1153024 0.1158213 0.1156992 0.1162485 0.1166453 0.1171641 0.1167979 0.1168589 0.1172557 0.1169505 0.1162485 0.1141427 0.1112128 0.1080693 0.1044986 0.1012635 0.09671611 0.09189404 0.08691937 0.0830434 0.07983886 0.07654276 0.073796 0.07053043 0.06757005 0.06479277 0.06219862 0.0598181 0.05874992 0.0577733 0.05719343 0.05578954 0.05325642 0.05041812 0.04791552 0.0459928 0.04385643 0.04226942 0.04135384 0.0404993 0.03991943 0.04013307 0.04040774 0.0401941 0.03982787 0.03994995 0.039248 0.03888177 0.03854606 0.04233047 0.04553501 0.04815968 0.05020448 0.05173045 0.05276811 0.05340902 0.05377525 0.05395837 0.05398889 0.05398889 0.05398889 0.05389733 0.05374473 0.05343954 0.05298175 0.05234084 0.05145578 0.05035708 0.0489837 0.04736617 0.04550449 0.04339864 0.04114021 0.03872917 0.03622658 0.0348532 0.03854606 0.04190319 0.04507721 0.04815968 0.0503876 0.05273759 0.05496551 0.05719343 0.05920772 0.06167979 0.06509797 0.06830251 0.07217848 0.07617652 0.0806934 0.08408106 0.08814014 0.09195507 0.09461027 0.09686871 0.09970701 0.1033388 0.1065739 0.1107856 0.1158823 0.1213453 0.1269304 0.1316914 0.1352622 0.1379174 0.1395044 0.1410914 0.1429225 0.1454557 0.1481414 0.1494232 0.1509492 0.1523836 0.1536959 0.1551303 0.1550693 0.1537569 0.1519563 0.149179 0.1470121 0.1454557 0.1432277 0.1418544 0.1395654 0.136544 0.1325765 0.1284258 0.1233901 0.119331 0.1154245 0.1111213 0.1060245 0.1016908 0.09754013 0.09335897 0.0897882 0.08603431 0.08279924 0.07999145 0.07745834 0.07513887 0.07233107 0.06903498 0.06604407 0.063572 0.06003174 0.05551486 0.05096747 0.04727461 0.04403955 0.04120125 0.03802722 0.03445645 0.03256425 0.03189281 0.03338827 0.03512788 0.03582982 0.03857657 0.0426967 0.04526033 0.05072331 0.05362266 0.05685772 0.06808887
